ply
format ascii 1.0
element face 0
property list uchar int vertex_indices
element vertex 914
property float x
property float y
property float z
property uchar diffuse_red
property uchar diffuse_green
property uchar diffuse_blue
end_header
-9.339278e-01 2.832085e-01 -2.926863e+00 244 229 199
-1.191622e+00 2.667372e-01 -2.970359e+00 188 147 101
-1.180054e+00 2.679078e-01 -2.967184e+00 241 203 154
-1.100124e+00 2.721297e-01 -2.950994e+00 205 171 125
-1.114802e+00 2.686339e-01 -2.953662e+00 214 180 134
-1.400786e+00 2.581609e-01 -2.995104e+00 194 148 113
-1.218272e+00 2.546121e-01 -2.973204e+00 232 189 144
-1.202270e+00 2.578431e-01 -2.967612e+00 200 160 114
-1.202626e+00 2.587125e-01 -2.967150e+00 200 160 114
-1.149420e+00 2.593931e-01 -2.955054e+00 222 191 147
-1.161582e+00 2.561742e-01 -2.958357e+00 169 128 82
-1.251334e+00 2.477593e-01 -2.975234e+00 149 103 53
-8.958612e-01 2.687901e-01 -2.912963e+00 224 205 173
-1.220135e+00 2.488799e-01 -2.967192e+00 227 183 138
-1.322515e+00 2.398111e-01 -2.985663e+00 211 166 111
-1.041963e+00 2.591767e-01 -2.933831e+00 254 230 196
-1.380717e+00 2.341941e-01 -2.992509e+00 200 153 106
-1.287044e+00 2.374153e-01 -2.978031e+00 171 124 72
-1.284031e+00 2.361149e-01 -2.975856e+00 242 196 146
-1.315903e+00 2.347954e-01 -2.979905e+00 219 172 118
-1.439785e+00 2.456712e-01 -2.984860e+00 135 86 49
-1.349452e+00 2.269794e-01 -2.986287e+00 246 196 144
-1.225662e+00 2.373880e-01 -2.961637e+00 242 200 150
-1.301263e+00 2.306697e-01 -2.975879e+00 236 189 138
-1.324690e+00 2.271742e-01 -2.978260e+00 132 85 33
-1.306802e+00 2.265681e-01 -2.975548e+00 138 91 37
-1.260036e+00 2.320794e-01 -2.964295e+00 252 209 159
-1.273049e+00 2.307369e-01 -2.966597e+00 253 210 160
-1.325033e+00 2.254966e-01 -2.976093e+00 223 176 124
-1.455907e+00 2.334507e-01 -2.983701e+00 201 154 112
-1.401588e+00 2.187307e-01 -2.987482e+00 233 182 131
-1.099552e+00 2.372297e-01 -2.932341e+00 233 204 162
-1.409078e+00 2.155661e-01 -2.988329e+00 145 94 42
-1.235657e+00 2.277520e-01 -2.955071e+00 162 118 69
-1.224762e+00 2.251404e-01 -2.951395e+00 183 141 91
-1.421065e+00 2.119115e-01 -2.984916e+00 255 214 165
-9.869450e-01 2.330858e-01 -2.910762e+00 223 199 163
-1.331732e+00 2.164319e-01 -2.968137e+00 233 186 130
-1.188827e+00 2.234565e-01 -2.942527e+00 237 195 145
-1.390737e+00 2.096863e-01 -2.975680e+00 180 129 72
-1.420050e+00 2.073025e-01 -2.980358e+00 180 130 80
-1.207422e+00 2.209295e-01 -2.941428e+00 236 193 148
-1.423394e+00 2.051453e-01 -2.980813e+00 165 117 68
-1.029735e+00 2.234097e-01 -2.912665e+00 255 234 198
-1.236094e+00 2.144220e-01 -2.945271e+00 236 192 143
-1.448688e+00 2.092309e-01 -2.975366e+00 218 174 124
-1.416912e+00 2.023352e-01 -2.976421e+00 175 131 87
-1.402874e+00 2.023508e-01 -2.972602e+00 134 87 42
-1.065761e+00 2.154049e-01 -2.916430e+00 226 200 163
-1.187117e+00 2.119746e-01 -2.934741e+00 254 214 169
-1.337996e+00 2.065135e-01 -2.959120e+00 176 126 73
-1.246832e+00 2.100688e-01 -2.942892e+00 191 147 98
-1.309396e+00 2.041795e-01 -2.950568e+00 193 147 97
-1.353589e+00 2.017928e-01 -2.956595e+00 156 108 62
-1.062538e+00 2.093254e-01 -2.911506e+00 228 204 168
-1.467702e+00 2.118000e-01 -2.964411e+00 156 110 65
-1.190524e+00 2.066499e-01 -2.929909e+00 199 158 112
-1.185114e+00 2.056457e-01 -2.929830e+00 220 179 135
-1.158562e+00 2.056303e-01 -2.925206e+00 187 144 101
-1.235836e+00 2.037889e-01 -2.935269e+00 237 194 149
-1.173322e+00 2.043016e-01 -2.924990e+00 195 153 110
-1.438026e+00 1.968400e-01 -2.966035e+00 157 111 62
-1.266241e+00 2.001431e-01 -2.939738e+00 213 169 122
-1.391221e+00 1.962412e-01 -2.958483e+00 125 81 47
-1.437528e+00 1.966052e-01 -2.963299e+00 217 171 124
-1.437528e+00 1.966052e-01 -2.963299e+00 217 171 124
-1.425815e+00 1.978458e-01 -2.960089e+00 153 110 71
-1.049631e+00 1.999673e-01 -2.905239e+00 252 228 192
-1.071676e+00 1.953920e-01 -2.907698e+00 255 234 200
-1.430293e+00 1.951005e-01 -2.956544e+00 207 164 121
-1.430226e+00 1.950874e-01 -2.956514e+00 207 164 121
-1.350358e+00 1.938788e-01 -2.946588e+00 144 96 48
-1.304483e+00 1.919280e-01 -2.939999e+00 229 186 135
-1.240918e+00 1.936892e-01 -2.929996e+00 155 112 67
-1.206542e+00 1.969378e-01 -2.922621e+00 243 201 161
-1.231312e+00 1.929071e-01 -2.926473e+00 248 205 163
-1.441699e+00 1.919318e-01 -2.954720e+00 140 95 53
-1.154931e+00 1.884951e-01 -2.916812e+00 201 162 121
-1.230665e+00 1.908184e-01 -2.924629e+00 157 115 73
-1.238598e+00 1.891889e-01 -2.925656e+00 141 98 55
-1.238598e+00 1.891889e-01 -2.925656e+00 141 98 55
-1.377751e+00 1.893449e-01 -2.944644e+00 170 120 70
-1.363414e+00 1.899157e-01 -2.941595e+00 167 117 68
-1.281356e+00 1.863520e-01 -2.931674e+00 227 186 137
-1.440822e+00 1.909508e-01 -2.950026e+00 133 86 42
-1.160097e+00 1.851667e-01 -2.914968e+00 233 193 151
-1.060010e+00 1.827644e-01 -2.902037e+00 231 210 182
-1.325101e+00 1.848172e-01 -2.932407e+00 233 190 137
-1.207288e+00 1.819552e-01 -2.917328e+00 249 211 174
-1.185704e+00 1.813637e-01 -2.914319e+00 219 181 142
-1.214189e+00 1.808720e-01 -2.917258e+00 250 210 174
-1.253881e+00 1.792136e-01 -2.922327e+00 208 164 125
-1.272204e+00 1.796931e-01 -2.924000e+00 168 125 82
-1.447735e+00 1.865556e-01 -2.943461e+00 215 172 127
-1.251380e+00 1.799346e-01 -2.919173e+00 241 199 159
-1.320577e+00 1.808679e-01 -2.927866e+00 217 171 121
-1.320577e+00 1.808679e-01 -2.927866e+00 217 171 121
-1.480066e+00 1.953872e-01 -2.938107e+00 226 188 149
-1.194039e+00 1.728791e-01 -2.913372e+00 194 151 116
-1.237389e+00 1.757961e-01 -2.916522e+00 194 153 113
-1.209715e+00 1.720605e-01 -2.914187e+00 185 145 109
-1.198169e+00 1.666725e-01 -2.913149e+00 207 167 135
-1.210301e+00 1.689209e-01 -2.912990e+00 224 186 150
-1.476803e+00 1.880269e-01 -2.936680e+00 138 100 63
-1.420135e+00 1.767954e-01 -2.930996e+00 151 102 46
-1.466873e+00 1.781274e-01 -2.933956e+00 233 194 153
-1.403515e+00 1.774336e-01 -2.924558e+00 234 189 136
-1.381947e+00 1.731008e-01 -2.922369e+00 226 179 127
-1.410770e+00 1.718780e-01 -2.923280e+00 167 122 69
-1.319170e+00 1.579413e-01 -2.909554e+00 240 198 160
-1.282689e+00 1.470610e-01 -2.911690e+00 238 202 170
-1.380338e+00 1.647110e-01 -2.912316e+00 252 209 160
-1.392044e+00 1.640424e-01 -2.911454e+00 219 174 125
-1.378881e+00 1.610178e-01 -2.907248e+00 242 199 154
-1.489981e+00 1.701972e-01 -2.915284e+00 139 95 60
-1.340426e+00 1.509316e-01 -2.906210e+00 254 216 180
-1.536696e+00 1.795624e-01 -2.914472e+00 108 62 26
-1.514530e+00 1.762327e-01 -2.909120e+00 250 202 166
-1.514530e+00 1.762327e-01 -2.909120e+00 250 202 166
-1.423038e+00 1.566718e-01 -2.906684e+00 177 142 100
-1.460683e+00 1.566813e-01 -2.907893e+00 233 197 161
-1.389712e+00 1.485358e-01 -2.900663e+00 232 193 152
-1.370495e+00 1.147850e-01 -2.895724e+00 240 209 182
-1.470546e+00 9.556149e-02 -2.894268e+00 218 191 162
-1.404901e+00 5.395434e-02 -2.902849e+00 173 139 111
-1.422332e+00 5.280761e-02 -2.902469e+00 161 134 108
-1.519009e+00 6.655125e-02 -2.907681e+00 215 187 163
-1.429789e+00 4.189316e-02 -2.902163e+00 255 233 205
-1.332778e+00 -9.948277e-02 -2.963177e+00 248 238 228
-1.421390e+00 3.957750e-01 -3.059063e+00 89 54 27
-1.488054e+00 3.944376e-01 -3.062429e+00 232 188 151
-1.318539e+00 3.562784e-01 -3.073306e+00 90 59 30
-1.302565e+00 3.480041e-01 -3.071048e+00 189 155 120
-1.371713e+00 3.748202e-01 -3.051224e+00 190 156 118
-1.437571e+00 3.909173e-01 -3.038127e+00 158 114 79
-1.434030e+00 3.879220e-01 -3.039830e+00 107 62 29
-1.398818e+00 3.780258e-01 -3.031680e+00 169 126 94
-1.347186e+00 3.600453e-01 -3.037440e+00 141 97 60
-1.347186e+00 3.600453e-01 -3.037440e+00 141 97 60
-1.448778e+00 3.822801e-01 -3.026931e+00 170 123 81
-1.280960e+00 3.413837e-01 -3.045385e+00 124 89 52
-1.397804e+00 3.733250e-01 -3.024671e+00 197 152 122
-1.363490e+00 3.624626e-01 -3.029774e+00 178 139 106
-1.366120e+00 3.571500e-01 -3.027330e+00 214 175 146
-1.407794e+00 3.705511e-01 -3.018978e+00 202 160 125
-1.300746e+00 3.429613e-01 -3.029854e+00 205 163 121
-1.348212e+00 3.491437e-01 -3.028260e+00 169 126 94
-1.264085e+00 3.352144e-01 -3.031661e+00 198 161 116
-1.264085e+00 3.352144e-01 -3.031661e+00 198 161 116
-1.282223e+00 3.377475e-01 -3.030029e+00 154 113 69
-1.373042e+00 3.474293e-01 -3.022225e+00 234 194 168
-1.427543e+00 3.608334e-01 -3.014116e+00 198 157 127
-1.306446e+00 3.360105e-01 -3.023288e+00 222 179 136
-1.026794e+00 3.265984e-01 -2.999104e+00 202 179 139
-1.189842e+00 3.237562e-01 -3.015721e+00 198 167 121
-1.218166e+00 3.217275e-01 -3.014423e+00 186 155 111
-3.662262e-01 3.394231e-01 -2.910527e+00 202 179 137
-1.334684e+00 3.299988e-01 -3.018489e+00 200 155 114
-1.334684e+00 3.299988e-01 -3.018489e+00 200 155 114
-1.138013e+00 3.208422e-01 -3.006190e+00 186 157 115
-1.373378e+00 3.318737e-01 -3.015775e+00 165 130 109
-1.285975e+00 3.220717e-01 -3.013577e+00 226 182 135
-1.261719e+00 3.217021e-01 -3.011349e+00 182 140 90
-1.081785e+00 3.184486e-01 -2.991770e+00 221 188 141
-1.242435e+00 3.194060e-01 -3.007458e+00 151 108 59
-1.147780e+00 3.139431e-01 -3.000910e+00 228 195 150
-5.272121e-01 3.341151e-01 -2.918447e+00 204 181 140
-5.272121e-01 3.341151e-01 -2.918447e+00 204 181 140
-1.403169e+00 3.324009e-01 -3.005564e+00 123 87 64
-1.397818e+00 3.305913e-01 -3.004969e+00 172 139 123
-1.232332e+00 3.120103e-01 -3.002219e+00 206 166 117
-1.320183e+00 3.108052e-01 -3.008166e+00 171 127 82
-1.319160e+00 3.080570e-01 -3.007532e+00 238 195 152
-1.079278e+00 3.103420e-01 -2.976416e+00 219 185 138
-1.291129e+00 2.975492e-01 -3.001594e+00 211 169 129
-1.228393e+00 2.972751e-01 -2.992505e+00 164 121 76
-3.628701e-01 3.155507e-01 -2.877545e+00 240 213 166
-1.288062e+00 2.928064e-01 -2.998299e+00 229 183 141
-1.273530e+00 2.897587e-01 -2.993792e+00 239 198 150
-1.242850e+00 2.885697e-01 -2.989152e+00 243 201 153
-9.121136e-01 2.974378e-01 -2.933835e+00 221 203 167
-1.222223e+00 2.776475e-01 -2.981857e+00 179 139 91
-1.414920e+00 2.786256e-01 -2.999464e+00 225 180 147
-1.266634e+00 2.663767e-01 -2.985445e+00 237 197 149
-1.364431e+00 2.625092e-01 -2.996882e+00 162 119 78
-1.112384e+00 2.680010e-01 -2.951826e+00 245 212 167
-1.238156e+00 2.555482e-01 -2.976455e+00 233 190 145
-1.140026e+00 2.584965e-01 -2.952982e+00 251 218 175
-1.155253e+00 2.561437e-01 -2.955468e+00 243 206 161
-1.166600e+00 2.547050e-01 -2.957510e+00 238 196 146
-1.071449e+00 2.610332e-01 -2.937592e+00 243 210 167
-1.435830e+00 2.540982e-01 -2.987212e+00 125 75 41
-1.259928e+00 2.426027e-01 -2.972559e+00 183 140 95
-1.100941e+00 2.545046e-01 -2.943002e+00 220 187 142
-1.307881e+00 2.385722e-01 -2.981126e+00 196 153 100
-1.124096e+00 2.484623e-01 -2.943008e+00 244 213 169
-1.350971e+00 2.221395e-01 -2.985328e+00 195 148 97
-1.409597e+00 2.169096e-01 -2.992358e+00 151 104 61
-1.409438e+00 2.167064e-01 -2.990230e+00 229 181 133
-1.369345e+00 2.199817e-01 -2.982438e+00 215 165 112
-1.441957e+00 2.125399e-01 -2.978951e+00 204 157 111
-1.230309e+00 2.166712e-01 -2.945238e+00 243 199 150
-1.201228e+00 2.181109e-01 -2.940270e+00 196 153 108
-1.150445e+00 2.190992e-01 -2.931483e+00 236 200 155
-1.064314e+00 2.174464e-01 -2.917694e+00 248 222 185
-1.285861e+00 2.095282e-01 -2.952139e+00 188 142 90
-1.401187e+00 2.033611e-01 -2.969372e+00 176 133 91
-1.045353e+00 2.133306e-01 -2.911750e+00 233 209 175
-1.045353e+00 2.133306e-01 -2.911750e+00 233 209 175
-1.347665e+00 2.015433e-01 -2.955227e+00 183 136 84
-1.260968e+00 2.017082e-01 -2.939542e+00 209 162 116
-1.328054e+00 1.989171e-01 -2.949647e+00 185 139 89
-1.258756e+00 2.004161e-01 -2.935554e+00 233 189 142
-1.346124e+00 1.949128e-01 -2.950492e+00 110 70 29
-1.228290e+00 1.975536e-01 -2.930538e+00 213 170 125
-1.206422e+00 1.974478e-01 -2.924946e+00 210 168 126
-1.150553e+00 1.849183e-01 -2.912656e+00 187 152 110
-1.322107e+00 1.877146e-01 -2.934216e+00 207 164 112
-1.115475e+00 1.824522e-01 -2.908620e+00 255 231 193
-1.372073e+00 1.879027e-01 -2.939551e+00 197 147 96
-1.331065e+00 1.831542e-01 -2.934406e+00 148 105 54
-1.328754e+00 1.839398e-01 -2.932470e+00 166 120 71
-1.396659e+00 1.833282e-01 -2.941524e+00 157 109 61
-1.193229e+00 1.778818e-01 -2.915605e+00 193 151 111
-1.193229e+00 1.778818e-01 -2.915605e+00 193 151 111
-1.452561e+00 1.871091e-01 -2.943644e+00 176 136 91
-1.421053e+00 1.803594e-01 -2.940515e+00 173 137 104
-1.323178e+00 1.782640e-01 -2.927775e+00 150 104 55
-1.360540e+00 1.773144e-01 -2.927867e+00 238 191 139
-1.361218e+00 1.763791e-01 -2.926128e+00 164 118 66
-1.248620e+00 1.685530e-01 -2.914461e+00 243 203 167
-1.412455e+00 1.719959e-01 -2.925406e+00 242 196 144
-1.301987e+00 1.632982e-01 -2.913674e+00 203 161 119
-1.447380e+00 1.735922e-01 -2.926771e+00 177 134 89
-1.327649e+00 1.648949e-01 -2.915295e+00 159 116 74
-1.413416e+00 1.691149e-01 -2.919547e+00 234 189 135
-1.330322e+00 1.614211e-01 -2.910589e+00 179 136 93
-1.413031e+00 1.667245e-01 -2.918407e+00 222 180 127
-1.426214e+00 1.646002e-01 -2.915164e+00 173 134 91
-1.426214e+00 1.646002e-01 -2.915164e+00 173 134 91
-1.474576e+00 1.674657e-01 -2.917057e+00 167 122 80
-1.453579e+00 1.633989e-01 -2.914647e+00 222 182 138
-1.316873e+00 1.443256e-01 -2.905266e+00 254 218 189
-1.477481e+00 1.352022e-01 -2.899088e+00 224 194 160
-1.345987e+00 2.054123e-01 -2.959696e+00 148 98 49
-1.256516e+00 3.212992e-01 -3.012110e+00 165 119 69
-1.345330e+00 2.222421e-01 -2.979708e+00 253 209 153
-1.111740e+00 2.978302e-01 -2.973253e+00 254 217 164
-1.442847e+00 1.480327e-01 -2.902564e+00 255 249 207
-1.401478e+00 3.205318e-01 -3.002886e+00 222 179 154
-1.459626e+00 2.357076e-01 -2.984973e+00 232 185 141
-1.401213e+00 2.162387e-01 -2.986105e+00 197 145 85
-1.385655e+00 2.169643e-01 -2.981636e+00 222 172 113
-1.423725e+00 2.051607e-01 -2.978040e+00 247 193 132
-1.321966e+00 2.076201e-01 -2.957979e+00 162 115 61
-1.309410e+00 2.038439e-01 -2.950959e+00 198 155 101
-1.303464e+00 1.950881e-01 -2.940463e+00 165 121 67
-1.303464e+00 1.950881e-01 -2.940463e+00 165 121 67
-1.272371e+00 1.826323e-01 -2.925474e+00 233 189 140
-1.421435e+00 1.699148e-01 -2.919512e+00 202 164 112
-1.374512e+00 1.627190e-01 -2.911051e+00 207 161 112
-1.421223e+00 1.525905e-01 -2.902984e+00 255 246 205
-1.449704e+00 3.837419e-01 -3.027629e+00 231 182 141
-1.455613e+00 3.804747e-01 -3.027406e+00 219 170 127
-1.437321e+00 3.720920e-01 -3.019395e+00 168 119 79
-1.263689e+00 2.790121e-01 -2.988145e+00 232 191 147
-1.170171e+00 2.773110e-01 -2.971838e+00 180 147 102
-1.429680e+00 2.663296e-01 -2.994568e+00 126 75 44
-1.427416e+00 2.660812e-01 -2.993781e+00 220 170 134
-1.425663e+00 2.644977e-01 -2.992005e+00 194 143 103
-1.313962e+00 2.175359e-01 -2.965869e+00 196 149 93
1.253610e+00 1.435124e-01 -2.745817e+00 243 205 169
1.197962e+00 2.871514e-01 -2.880157e+00 236 188 140
1.309717e+00 1.240021e-01 -2.667817e+00 255 242 220
1.376476e+00 1.712366e-01 -2.678343e+00 255 232 213
1.386347e+00 1.873424e-01 -2.695465e+00 207 175 150
1.259312e+00 1.672361e-01 -2.771659e+00 192 153 112
1.352648e+00 2.178728e-01 -2.778624e+00 245 211 174
-1.375273e+00 3.406293e-01 -3.017088e+00 206 165 143
2.236918e-01 3.030432e-01 -2.859609e+00 252 233 196
3.103360e-01 3.028717e-01 -2.869761e+00 240 217 183
7.966265e-01 2.549348e-01 -2.908133e+00 245 226 194
1.216220e+00 3.214908e-01 -2.891221e+00 237 193 148
1.117682e+00 3.215747e-01 -2.983547e+00 212 179 144
1.171948e+00 3.311355e-01 -2.967781e+00 190 156 119
1.079575e+00 1.919086e-01 -2.834570e+00 255 241 210
8.883340e-01 1.669660e-01 -2.829991e+00 255 241 210
1.023542e+00 1.917018e-01 -2.833104e+00 224 186 147
1.048367e+00 1.998298e-01 -2.841115e+00 255 233 196
1.020693e+00 2.032958e-01 -2.845995e+00 241 204 159
-1.137535e-01 3.018464e-01 -2.849854e+00 255 242 207
1.251003e+00 1.609967e-01 -2.765032e+00 250 212 176
1.199662e+00 1.714384e-01 -2.806246e+00 255 238 195
1.035028e+00 1.914877e-01 -2.833071e+00 255 247 216
1.028195e+00 1.895555e-01 -2.830779e+00 255 226 191
1.152945e+00 2.417277e-01 -2.854736e+00 232 206 179
1.192453e+00 3.220259e-01 -2.942808e+00 206 172 134
1.055616e+00 1.755663e-01 -2.823965e+00 231 213 184
9.898892e-01 1.883710e-01 -2.832196e+00 229 195 157
1.018280e+00 1.930388e-01 -2.835286e+00 229 194 152
1.303760e+00 2.165885e-01 -2.800702e+00 242 203 164
1.133822e+00 2.308017e-01 -2.852602e+00 255 241 211
1.218496e+00 2.655168e-01 -2.857463e+00 255 242 201
1.137825e+00 3.140940e-01 -2.962690e+00 243 217 180
1.163683e+00 2.498635e-01 -2.853530e+00 250 216 188
2.018773e-01 2.969607e-01 -2.850498e+00 233 218 187
1.229897e+00 2.209466e-01 -2.836847e+00 255 236 196
1.192427e+00 1.425312e-01 -2.780695e+00 255 231 200
1.078251e+00 2.489188e-01 -2.899165e+00 222 187 147
1.390193e+00 1.676775e-01 -2.677206e+00 255 237 232
1.109760e+00 3.098540e-01 -2.973787e+00 247 209 163
1.256436e+00 2.466380e-01 -2.847133e+00 255 232 188
1.256436e+00 2.466380e-01 -2.847133e+00 255 232 188
7.797121e-01 2.307369e-01 -2.864358e+00 220 197 165
1.174183e+00 1.419334e-01 -2.782731e+00 255 238 208
7.931491e-01 2.307840e-01 -2.867240e+00 219 196 164
1.892636e-01 2.813615e-01 -2.834517e+00 217 202 171
1.088201e+00 1.761147e-01 -2.829157e+00 255 248 222
1.268257e+00 1.883944e-01 -2.789594e+00 248 206 164
1.259286e+00 1.757660e-01 -2.779423e+00 248 210 165
1.137853e+00 1.620914e-01 -2.809438e+00 240 205 170
1.231084e+00 1.622803e-01 -2.778867e+00 212 169 133
1.174188e+00 1.262350e-01 -2.774003e+00 255 239 215
1.093074e+00 3.070097e-01 -2.976966e+00 253 219 175
1.130163e+00 3.065946e-01 -2.959836e+00 249 216 177
1.160290e+00 2.647430e-01 -2.871347e+00 213 175 139
1.042944e+00 2.340778e-01 -2.890619e+00 255 233 195
3.522277e-01 2.782581e-01 -2.846053e+00 243 228 197
4.962126e-01 2.445889e-01 -2.835502e+00 255 252 232
3.390273e-01 2.526775e-01 -2.825780e+00 239 227 206
1.170875e+00 1.815143e-01 -2.819407e+00 254 222 183
9.470163e-01 1.806028e-01 -2.824195e+00 242 213 181
1.067106e+00 1.683588e-01 -2.820111e+00 255 255 235
1.133504e+00 1.492988e-01 -2.802988e+00 255 241 208
1.200839e+00 1.506471e-01 -2.785211e+00 219 177 137
1.086113e+00 3.070628e-01 -2.985387e+00 229 194 156
1.063453e+00 2.461889e-01 -2.898782e+00 252 223 183
1.048298e+00 2.397626e-01 -2.893103e+00 229 199 161
-1.261614e+00 3.210425e-01 -3.012383e+00 186 143 98
1.094464e+00 2.226238e-01 -2.854426e+00 197 153 111
-5.382066e-01 3.218493e-01 -2.902138e+00 213 190 156
1.055543e+00 2.167992e-01 -2.860187e+00 199 158 114
-3.271975e-01 3.190225e-01 -2.877339e+00 194 176 140
7.062607e-01 2.405402e-01 -2.864586e+00 206 185 154
1.024587e+00 2.058044e-01 -2.854503e+00 191 148 103
3.645675e-01 2.692101e-01 -2.838008e+00 221 204 174
1.025154e+00 2.039739e-01 -2.846938e+00 227 189 144
1.303942e+00 2.139879e-01 -2.796835e+00 241 206 163
5.056426e-01 2.438143e-01 -2.835163e+00 255 252 235
1.037838e+00 1.866506e-01 -2.830286e+00 229 197 159
1.076515e+00 1.840478e-01 -2.826994e+00 255 235 209
1.058361e+00 1.816190e-01 -2.827761e+00 210 175 143
1.091851e+00 1.532871e-01 -2.813273e+00 224 203 174
1.108511e+00 1.516776e-01 -2.811211e+00 255 239 210
1.254744e+00 1.590487e-01 -2.758718e+00 249 213 177
1.161488e+00 3.171676e-01 -2.951840e+00 253 220 182
1.076487e+00 3.016777e-01 -2.980783e+00 185 148 103
1.053068e+00 2.888445e-01 -2.972175e+00 187 153 108
1.018070e+00 2.772189e-01 -2.955584e+00 179 147 109
1.018070e+00 2.772189e-01 -2.955584e+00 179 147 109
1.110559e+00 2.660680e-01 -2.906456e+00 216 183 142
-1.381115e+00 3.528098e-01 -3.021281e+00 184 143 121
1.050612e+00 2.206654e-01 -2.876596e+00 216 182 137
8.930714e-01 2.201184e-01 -2.870348e+00 255 233 198
3.072655e-01 2.751894e-01 -2.838284e+00 255 241 210
1.134069e+00 1.988269e-01 -2.839311e+00 255 235 201
3.326766e-01 2.604139e-01 -2.828366e+00 255 249 226
-2.425161e-01 2.811226e-01 -2.842160e+00 241 226 197
9.977019e-01 1.848077e-01 -2.826948e+00 222 187 147
9.977019e-01 1.848077e-01 -2.826948e+00 222 187 147
1.203795e+00 1.760815e-01 -2.807058e+00 231 196 154
1.195077e+00 1.691000e-01 -2.803976e+00 215 176 133
1.195077e+00 1.691000e-01 -2.803976e+00 215 176 133
9.492749e-01 1.744855e-01 -2.821177e+00 255 249 219
1.202183e+00 1.669281e-01 -2.797202e+00 255 232 189
1.202713e+00 1.504075e-01 -2.782700e+00 212 170 130
1.153424e+00 1.436552e-01 -2.792966e+00 254 223 192
1.319728e+00 1.623582e-01 -2.688404e+00 221 190 161
1.275788e+00 1.424179e-01 -2.710754e+00 251 216 178
1.137785e+00 3.138213e-01 -2.962973e+00 226 194 155
1.226796e+00 3.222605e-01 -2.887594e+00 207 165 117
1.065347e+00 2.296483e-01 -2.882543e+00 253 220 176
-1.263291e+00 3.252562e-01 -3.015130e+00 232 189 144
-1.263291e+00 3.252562e-01 -3.015130e+00 232 189 144
1.303981e+00 2.275311e-01 -2.827917e+00 194 157 115
7.050179e-01 2.370835e-01 -2.860528e+00 241 218 186
-1.363921e-01 3.043577e-01 -2.854794e+00 222 203 176
-6.641621e-01 2.992565e-01 -2.897490e+00 219 204 175
1.199203e+00 1.851157e-01 -2.817145e+00 233 200 157
9.285640e-01 1.919504e-01 -2.839006e+00 195 161 122
1.028832e+00 1.899715e-01 -2.830178e+00 248 210 170
1.070610e+00 1.850025e-01 -2.830181e+00 255 234 203
1.091178e+00 1.708203e-01 -2.825238e+00 230 213 183
1.087301e+00 1.691613e-01 -2.824182e+00 255 239 212
1.128976e+00 1.629884e-01 -2.813091e+00 255 245 213
1.373098e+00 9.113943e-02 -2.638427e+00 250 230 220
4.947072e-01 2.786446e-01 -2.873661e+00 232 209 175
1.006196e+00 1.957975e-01 -2.837665e+00 231 194 150
1.070025e+00 1.882997e-01 -2.832610e+00 236 205 174
1.024412e+00 1.907751e-01 -2.832728e+00 201 163 120
-2.319338e-02 2.725386e-01 -2.827083e+00 217 201 176
1.039129e+00 1.797409e-01 -2.825543e+00 243 211 173
1.105944e+00 1.697256e-01 -2.821695e+00 219 204 175
9.528297e-01 1.800359e-01 -2.825641e+00 254 225 190
9.509357e-01 1.712756e-01 -2.818889e+00 228 221 193
1.113466e+00 1.486082e-01 -2.808589e+00 255 241 211
9.030572e-01 7.122796e-02 -2.880181e+00 253 227 180
8.790955e-01 1.887762e-01 -2.844598e+00 184 162 121
1.158324e+00 1.508709e-01 -2.797854e+00 237 213 176
1.131609e+00 1.897767e-01 -2.831806e+00 234 210 172
1.087501e+00 2.040527e-01 -2.841497e+00 221 196 156
1.319643e+00 1.342700e-01 -2.669425e+00 232 215 189
1.112027e+00 1.386755e-01 -2.803352e+00 167 146 115
1.142651e+00 1.554230e-01 -2.805112e+00 229 205 169
1.092264e+00 2.079066e-01 -2.845196e+00 195 170 133
1.196339e+00 2.536541e-01 -2.857046e+00 223 193 155
1.260780e+00 3.210960e-01 -2.886647e+00 209 178 132
1.111936e+00 3.322522e-01 -3.008740e+00 156 130 95
1.194363e+00 3.321503e-01 -2.991792e+00 146 112 77
1.248309e+00 3.045301e-01 -2.879826e+00 233 184 141
1.196158e+00 2.801730e-01 -2.872251e+00 198 146 98
1.250657e+00 9.812446e-02 -2.708262e+00 255 222 192
1.269536e+00 4.379401e-02 -2.692757e+00 202 164 125
1.081019e+00 2.238030e-01 -2.865291e+00 212 162 109
1.256871e+00 2.100979e-01 -2.814702e+00 255 215 170
1.241328e+00 1.006665e-01 -2.733891e+00 144 99 66
1.265862e+00 8.779317e-02 -2.684033e+00 196 160 123
1.283101e+00 3.447903e-01 -2.937489e+00 230 197 166
1.267634e+00 3.310392e-01 -2.929911e+00 162 124 87
1.267634e+00 3.310392e-01 -2.929911e+00 162 124 87
1.215918e+00 3.261670e-01 -2.929567e+00 224 185 142
1.376389e+00 2.222686e-01 -2.759344e+00 169 126 84
1.215789e+00 1.565577e-01 -2.775497e+00 211 169 131
1.253850e+00 1.565049e-01 -2.757724e+00 240 196 157
1.246366e+00 5.079757e-02 -2.707784e+00 243 206 177
-1.563855e+00 1.680273e-01 -2.914267e+00 143 95 55
1.210275e+00 3.347118e-01 -3.066524e+00 174 154 132
1.230480e+00 3.380948e-01 -3.059015e+00 178 159 135
1.271855e+00 3.378298e-01 -3.017885e+00 181 147 109
1.244381e+00 3.368040e-01 -3.010759e+00 146 111 73
1.259129e+00 2.309136e-01 -2.827440e+00 226 182 135
1.294412e+00 2.068185e-01 -2.800032e+00 215 171 123
1.294412e+00 2.068185e-01 -2.800032e+00 215 171 123
1.333694e+00 2.046040e-01 -2.750377e+00 201 161 118
1.333694e+00 2.046040e-01 -2.750377e+00 201 161 118
1.291904e+00 1.653659e-01 -2.692076e+00 230 188 150
1.291904e+00 1.653659e-01 -2.692076e+00 230 188 150
1.230420e+00 9.517188e-02 -2.749863e+00 252 212 178
1.284119e+00 4.944983e-02 -2.673038e+00 248 219 201
-1.564526e+00 1.518258e-01 -2.910584e+00 254 224 202
1.251713e+00 3.354189e-01 -2.979310e+00 216 181 143
1.251713e+00 3.354189e-01 -2.979310e+00 216 181 143
1.220818e+00 3.187478e-01 -2.885294e+00 244 195 152
1.207745e+00 2.240224e-01 -2.847803e+00 255 235 194
1.411374e+00 2.281516e-01 -2.811210e+00 181 150 120
1.231559e+00 1.659098e-01 -2.767078e+00 244 200 161
1.307221e+00 1.919241e-01 -2.729824e+00 209 166 124
1.255940e+00 1.202801e-01 -2.717969e+00 250 207 168
-1.561367e+00 1.741377e-01 -2.923692e+00 186 141 103
-1.589936e+00 1.348987e-01 -2.922185e+00 205 161 128
-1.596989e+00 1.294276e-01 -2.923666e+00 229 190 151
-1.558449e+00 8.961626e-02 -2.912871e+00 245 214 185
1.247848e+00 3.379886e-01 -2.991384e+00 153 119 81
-1.547841e+00 3.607488e-01 -3.140653e+00 152 119 88
-1.392866e+00 3.879818e-01 -3.053369e+00 185 150 112
1.176338e+00 2.151962e-01 -2.846568e+00 141 94 48
1.282072e+00 2.033138e-01 -2.800116e+00 237 194 147
1.284495e+00 2.021682e-01 -2.791697e+00 196 152 103
1.214956e+00 1.265733e-01 -2.764144e+00 212 169 135
1.221571e+00 1.136057e-01 -2.754657e+00 213 171 133
1.245764e+00 1.276066e-01 -2.726074e+00 191 148 113
1.213590e+00 8.298555e-02 -2.751409e+00 249 212 183
1.267927e+00 1.232572e-01 -2.700507e+00 171 129 91
1.303933e+00 1.409072e-01 -2.666690e+00 255 230 202
1.254015e+00 7.384994e-02 -2.708433e+00 255 222 191
1.256312e+00 7.955687e-02 -2.696816e+00 249 211 179
1.256312e+00 7.955687e-02 -2.696816e+00 249 211 179
1.238198e+00 4.161634e-02 -2.722045e+00 237 204 173
1.255514e+00 3.652451e-02 -2.692847e+00 197 159 118
-1.562307e+00 1.817629e-01 -2.952170e+00 121 84 57
-1.589463e+00 1.464240e-01 -2.924043e+00 234 192 154
-1.581095e+00 9.522323e-02 -2.920708e+00 227 193 165
-1.575555e+00 2.890753e-01 -3.274694e+00 55 34 15
1.269284e+00 3.374396e-01 -2.961747e+00 211 173 136
1.226896e+00 3.273448e-01 -2.920083e+00 170 131 90
1.212585e+00 3.100959e-01 -2.880518e+00 194 143 96
1.197827e+00 3.006498e-01 -2.888837e+00 234 182 134
1.195369e+00 2.817306e-01 -2.882195e+00 186 134 85
1.166261e+00 2.620148e-01 -2.872574e+00 228 188 153
-1.213609e+00 3.264450e-01 -3.022332e+00 178 144 104
1.287890e+00 2.099623e-01 -2.805905e+00 216 172 125
1.191952e+00 1.533531e-01 -2.792255e+00 209 166 124
1.191952e+00 1.533531e-01 -2.792255e+00 209 166 124
1.349186e+00 1.880905e-01 -2.703593e+00 209 167 128
1.247499e+00 1.271985e-01 -2.739724e+00 188 144 107
1.341929e+00 1.730130e-01 -2.691634e+00 222 185 147
1.341929e+00 1.730130e-01 -2.691634e+00 222 185 147
1.227883e+00 6.877601e-02 -2.746310e+00 187 143 106
1.244386e+00 7.700271e-02 -2.716453e+00 222 183 150
1.263459e+00 8.463544e-02 -2.694229e+00 207 169 133
1.258504e+00 6.767070e-02 -2.701479e+00 216 180 144
1.259190e+00 6.995713e-02 -2.691084e+00 210 173 136
1.362643e+00 9.331892e-02 -2.638784e+00 221 199 188
-1.559457e+00 1.772241e-01 -2.930785e+00 130 80 43
-1.615565e+00 1.157056e-01 -2.978163e+00 122 88 61
-1.602989e+00 1.423682e-01 -2.937757e+00 200 152 103
-1.596335e+00 1.430516e-01 -2.928822e+00 234 188 146
-1.603498e+00 1.222728e-01 -2.934138e+00 158 106 59
-1.607637e+00 1.190426e-01 -2.934212e+00 190 139 93
-1.569284e+00 1.230315e-01 -2.912610e+00 242 210 189
-1.569284e+00 1.230315e-01 -2.912610e+00 242 210 189
-1.584221e+00 1.096948e-01 -2.918722e+00 244 208 177
-1.552585e+00 7.434669e-02 -2.914090e+00 177 141 109
1.238356e+00 3.333433e-01 -2.955489e+00 195 157 119
1.233354e+00 3.317485e-01 -2.947485e+00 159 121 82
1.232008e+00 1.304732e-01 -2.754252e+00 212 169 134
1.232008e+00 1.304732e-01 -2.754252e+00 212 169 134
1.324562e+00 1.757962e-01 -2.696461e+00 227 187 150
1.312715e+00 1.550982e-01 -2.678823e+00 231 197 165
1.249521e+00 8.492377e-02 -2.712350e+00 212 174 140
1.263477e+00 8.244046e-02 -2.672922e+00 205 167 131
1.264695e+00 4.752995e-02 -2.688245e+00 198 160 123
-1.553000e+00 1.791748e-01 -2.931839e+00 160 118 80
-1.574815e+00 1.700481e-01 -2.930124e+00 187 140 98
-1.553094e+00 1.659575e-01 -2.906557e+00 174 127 85
-1.584750e+00 1.453642e-01 -2.921102e+00 186 141 108
-1.386509e+00 3.745553e-01 -3.032584e+00 186 150 116
1.245482e+00 4.023968e-02 -2.731048e+00 207 172 142
-1.596124e+00 1.619149e-01 -2.963734e+00 171 140 112
-1.559922e+00 1.755563e-01 -2.926356e+00 200 152 114
-1.558417e+00 1.734911e-01 -2.921636e+00 187 142 103
-1.552760e+00 1.624861e-01 -2.904576e+00 234 195 164
-1.613966e+00 8.894983e-02 -2.934630e+00 181 131 88
-1.557587e+00 1.054837e-01 -2.910570e+00 120 90 67
-1.557587e+00 1.054837e-01 -2.910570e+00 120 90 67
-1.577855e+00 7.974366e-02 -2.917496e+00 236 199 172
-1.558015e+00 1.747002e-01 -2.924051e+00 145 99 63
-1.599593e+00 1.454176e-01 -2.936706e+00 124 74 28
-1.587012e+00 1.517321e-01 -2.925162e+00 140 90 47
-1.600476e+00 1.360176e-01 -2.930201e+00 240 193 144
-1.599609e+00 1.383723e-01 -2.931371e+00 178 130 84
-1.532716e+00 1.937125e-01 -3.110682e+00 182 136 106
-1.388050e-01 3.248185e-01 -2.874805e+00 221 194 153
1.323469e+00 1.974822e-01 -2.749014e+00 248 207 161
-6.306053e-02 3.375668e-01 -2.895748e+00 240 215 175
-3.440297e-01 3.130855e-01 -2.871888e+00 255 243 202
-2.410754e-01 3.270409e-01 -2.882919e+00 235 211 167
-1.341720e+00 2.959874e-01 -2.998182e+00 251 208 166
-3.871743e-01 2.826035e-01 -2.854288e+00 255 253 232
9.566574e-01 2.092368e-01 -2.865925e+00 255 230 187
1.387559e+00 1.891540e-01 -3.043246e+00 179 151 112
-2.739235e-01 2.778197e-01 -2.840527e+00 232 215 189
1.291842e+00 2.043528e-01 -2.787422e+00 254 221 181
1.019834e+00 2.103986e-01 -2.866355e+00 255 225 176
-1.356250e+00 2.671536e-01 -2.998618e+00 141 96 54
1.243277e+00 1.544526e-01 -2.766241e+00 255 221 185
-4.231125e-01 2.762704e-01 -2.851784e+00 255 249 229
-1.331195e+00 3.202998e-01 -3.011591e+00 249 206 161
1.260133e+00 2.279167e-01 -2.833183e+00 224 180 131
1.109243e+00 2.712390e-01 -2.918780e+00 230 201 159
-1.398124e+00 1.730646e-01 -2.926399e+00 205 157 108
-1.455590e+00 1.758219e-01 -2.931678e+00 149 105 61
-1.422750e+00 1.908062e-01 -2.949144e+00 215 167 119
7.681042e-02 2.765201e-01 -2.828617e+00 219 203 170
9.532646e-02 2.783551e-01 -2.830986e+00 249 233 201
1.374130e+00 2.089750e-01 -2.735649e+00 195 156 113
1.402586e+00 6.745598e-02 -2.637392e+00 185 142 97
-1.386831e+00 1.935483e-01 -2.953232e+00 144 93 47
1.304447e+00 1.344516e-01 -2.675959e+00 253 227 197
1.378172e+00 1.624170e-01 -2.672250e+00 160 134 117
1.340141e+00 1.797423e-01 -2.699540e+00 255 235 200
-1.381176e+00 3.242004e-01 -3.011377e+00 125 88 71
1.246551e+00 1.828183e-01 -2.796949e+00 227 186 142
1.246551e+00 1.828183e-01 -2.796949e+00 227 186 142
-3.283140e-01 3.065305e-01 -2.867569e+00 255 243 208
1.192060e+00 1.817542e-01 -2.816434e+00 255 241 194
-1.259543e+00 3.292203e-01 -3.026265e+00 220 178 131
1.059555e+00 2.088545e-01 -2.853399e+00 231 191 139
1.255346e+00 2.285540e-01 -2.835027e+00 252 212 163
8.590642e-01 2.421473e-01 -2.893690e+00 255 243 206
1.164501e+00 2.663930e-01 -2.869117e+00 216 181 141
1.391968e+00 1.845942e-01 -3.039619e+00 19 10 0
1.392496e+00 1.938636e-01 -3.044183e+00 19 8 0
1.375777e+00 1.655068e-01 -2.672897e+00 170 141 123
1.327747e+00 1.833323e-01 -2.713574e+00 255 225 187
1.152415e+00 1.631363e-01 -2.809258e+00 237 204 159
1.211378e+00 1.694800e-01 -2.799760e+00 225 192 148
1.331236e+00 2.036210e-01 -2.756900e+00 255 228 190
-1.254792e+00 3.276804e-01 -3.020224e+00 172 129 81
1.051170e+00 2.029570e-01 -2.847214e+00 177 136 82
4.323272e-01 2.701633e-01 -2.847577e+00 254 237 201
1.225253e+00 2.084121e-01 -2.831035e+00 222 186 137
1.191212e+00 2.839934e-01 -2.879637e+00 175 125 76
1.191357e+00 2.943894e-01 -2.888365e+00 197 146 95
1.040143e+00 2.891837e-01 -2.985844e+00 200 172 132
1.086614e+00 3.034870e-01 -2.977146e+00 255 228 182
1.199239e+00 3.266699e-01 -2.941076e+00 218 186 144
1.169821e+00 3.274978e-01 -2.962232e+00 229 198 154
1.197089e+00 3.305438e-01 -2.959598e+00 234 204 170
1.111815e+00 3.312781e-01 -3.009618e+00 188 156 118
-1.414440e+00 -1.814478e-01 -3.084026e+00 48 43 41
-1.342532e+00 1.562098e-01 -2.908143e+00 252 218 177
1.163876e+00 1.375831e-01 -2.782630e+00 241 217 179
1.377470e+00 1.781997e-01 -2.685786e+00 223 195 170
1.124724e+00 1.380381e-01 -2.800177e+00 239 206 163
-4.332204e-01 2.669333e-01 -2.850800e+00 239 228 208
1.043189e+00 1.740734e-01 -2.822378e+00 235 201 155
6.364173e-02 2.802301e-01 -2.830944e+00 225 209 176
-1.103491e-01 2.935099e-01 -2.843159e+00 253 234 204
-3.682650e-01 3.146631e-01 -2.875184e+00 233 207 170
1.355768e+00 2.182358e-01 -2.777195e+00 247 215 177
1.322475e+00 2.268661e-01 -2.832461e+00 174 142 103
5.846901e-01 2.845388e-01 -2.925185e+00 225 208 178
1.191518e+00 2.845752e-01 -2.883929e+00 233 183 132
1.241271e+00 3.262024e-01 -2.896005e+00 215 177 132
1.103184e+00 3.153808e-01 -2.983068e+00 215 186 154
1.276655e+00 3.398281e-01 -2.945997e+00 206 178 141
-1.406485e+00 1.529349e-01 -3.172024e+00 208 161 115
1.383380e+00 -2.071739e-02 -2.657175e+00 209 184 177
-1.365793e+00 -3.064987e-02 -2.929462e+00 151 114 80
1.287388e+00 1.787422e-02 -2.669757e+00 237 214 200
-1.353106e+00 -7.799265e-02 -2.952643e+00 211 172 135
-1.365728e+00 -3.692085e-02 -2.930517e+00 171 135 99
1.117688e+00 2.420254e-01 -2.866607e+00 247 212 178
-1.067849e+00 2.703727e-01 -2.946500e+00 255 233 199
-1.067849e+00 2.703727e-01 -2.946500e+00 255 233 199
-1.413806e+00 2.430262e-01 -2.988531e+00 231 184 156
-8.702679e-01 2.729131e-01 -2.912076e+00 234 211 177
-1.164881e+00 2.402037e-01 -2.948516e+00 255 222 177
-2.237074e-01 2.761707e-01 -2.838257e+00 223 200 166
-1.435870e+00 2.282112e-01 -2.980106e+00 123 84 55
-3.325934e-01 2.720403e-01 -2.844109e+00 254 237 209
-2.305641e-01 2.777451e-01 -2.838997e+00 255 240 206
-1.266965e+00 3.207035e-01 -3.011419e+00 254 214 172
-1.150677e+00 2.206982e-01 -2.933861e+00 225 190 150
-1.108467e-01 2.930052e-01 -2.843848e+00 253 234 199
8.980068e-01 3.227920e-01 -3.039076e+00 12 12 12
1.208947e+00 1.384175e-01 -2.770789e+00 252 213 182
4.073943e-01 2.497430e-01 -2.830633e+00 255 251 228
-1.178911e+00 2.601622e-01 -2.964123e+00 243 207 159
1.179879e+00 1.976271e-01 -2.831306e+00 245 213 174
9.343444e-01 1.865725e-01 -2.830890e+00 255 238 202
1.153520e+00 1.723535e-01 -2.815333e+00 255 244 209
3.442796e-01 2.646531e-01 -2.833545e+00 228 213 182
1.929194e-01 2.691285e-01 -2.825476e+00 254 241 215
1.929194e-01 2.691285e-01 -2.825476e+00 254 241 215
9.269508e-01 1.960653e-01 -2.839822e+00 245 213 172
8.780681e-01 7.045081e-02 -2.884824e+00 210 174 129
-1.073426e+00 2.132409e-01 -2.914431e+00 223 193 159
-1.253517e+00 1.893948e-01 -2.927751e+00 209 166 123
-1.330116e+00 -7.558235e-02 -2.962623e+00 183 156 139
-1.391884e+00 3.095644e-01 -3.004499e+00 116 85 71
1.097765e+00 1.868492e-01 -2.827480e+00 237 212 182
1.156300e+00 1.651273e-01 -2.810850e+00 252 216 176
-8.518375e-01 2.381933e-01 -2.889555e+00 255 244 210
-1.170561e+00 1.965413e-01 -2.920226e+00 202 163 122
-1.459494e+00 3.927221e-01 -3.041161e+00 195 151 111
1.167854e+00 1.325784e-01 -2.777267e+00 255 241 214
-1.454957e+00 2.111649e-01 -2.969364e+00 252 211 171
1.377850e+00 1.666579e-01 -2.674026e+00 240 213 202
-1.474289e+00 2.363371e-01 -2.987689e+00 207 158 117
1.289947e+00 -6.645407e-02 -2.827199e+00 167 144 112
-1.126834e+00 2.465611e-01 -2.946007e+00 225 194 149
-1.337717e+00 2.201908e-01 -2.973060e+00 231 181 128
-1.542516e+00 2.013808e-01 -2.992517e+00 137 107 89
-1.542516e+00 2.013808e-01 -2.992517e+00 137 107 89
-1.495556e+00 1.938064e-01 -2.933377e+00 220 184 150
-1.463680e+00 3.906931e-01 -3.040520e+00 158 111 66
-1.326259e+00 2.409966e-01 -2.987178e+00 255 210 155
-1.187990e+00 2.030461e-01 -2.928281e+00 251 210 163
-1.283541e+00 2.281437e-01 -2.967264e+00 251 206 154
-1.305092e+00 2.194344e-01 -2.964731e+00 243 199 146
-1.245540e+00 1.936959e-01 -2.931051e+00 142 99 56
-1.330636e+00 1.810736e-01 -2.929590e+00 150 104 55
-1.178321e+00 2.523218e-01 -2.959580e+00 202 161 112
-1.175692e+00 2.373315e-01 -2.949902e+00 214 172 122
-1.382174e+00 2.178136e-01 -2.982417e+00 190 143 89
-1.556674e+00 1.863902e-01 -2.954962e+00 193 156 127
-1.301292e+00 2.228978e-01 -2.965514e+00 233 189 132
-1.491842e+00 3.759340e-01 -3.040808e+00 211 163 125
-1.108058e+00 2.731004e-01 -2.955225e+00 210 178 131
-1.552857e+00 1.777343e-01 -2.927254e+00 136 88 49
-1.489172e+00 3.953362e-01 -3.065156e+00 82 37 4
-1.503986e+00 3.892424e-01 -3.070896e+00 172 127 85
-1.484116e+00 3.896421e-01 -3.052368e+00 204 159 117
-1.312291e+00 2.752551e-01 -2.995536e+00 133 86 42
-1.530716e+00 2.140662e-01 -3.012317e+00 177 142 105
-1.315650e+00 2.343387e-01 -2.980292e+00 224 179 122
-1.397636e+00 2.223622e-01 -2.991117e+00 210 164 128
-1.529393e+00 2.113285e-01 -3.000802e+00 162 126 102
-1.303662e+00 2.234120e-01 -2.967828e+00 237 190 134
-1.344083e+00 2.092239e-01 -2.962864e+00 224 174 123
-1.401147e+00 2.022665e-01 -2.969863e+00 188 141 100
-1.228875e+00 2.087714e-01 -2.937857e+00 253 211 161
-1.329916e+00 1.948541e-01 -2.945132e+00 228 183 128
-1.538145e+00 2.172131e-01 -3.031290e+00 188 149 108
-1.201663e+00 2.246811e-01 -2.946222e+00 196 155 103
-1.185782e+00 2.031926e-01 -2.925868e+00 169 131 86
-1.554552e+00 1.785147e-01 -2.930324e+00 186 138 98
-1.608738e+00 1.356290e-01 -2.937830e+00 165 114 68
-1.607033e+00 1.357978e-01 -2.937382e+00 221 168 119
1.226577e+00 6.325725e-02 -2.742749e+00 191 159 126
1.249111e+00 4.444578e-02 -2.715197e+00 213 187 160
1.279964e+00 -4.043983e-02 -2.805529e+00 178 153 125
1.284984e+00 -4.061161e-02 -2.788092e+00 108 88 55
-1.596886e+00 1.418797e-01 -2.929185e+00 202 168 133
1.228234e+00 6.749333e-02 -2.746673e+00 164 130 93
-1.545000e+00 2.134932e-01 -3.039487e+00 201 173 149
-1.586397e+00 1.527433e-01 -2.925358e+00 79 40 6
-1.537574e+00 2.191447e-01 -3.032975e+00 217 187 159
-1.290247e+00 2.529118e-01 -2.985361e+00 204 171 131
-1.311744e+00 2.020273e-01 -2.948587e+00 212 178 133
-1.442862e+00 2.403538e-01 -2.984087e+00 134 95 62
-1.235899e+00 2.569853e-01 -2.975979e+00 147 113 76
-1.168316e+00 2.541115e-01 -2.957722e+00 206 177 133
-1.300626e+00 1.874007e-01 -2.933548e+00 200 167 124
-1.605837e+00 1.380156e-01 -2.938348e+00 180 141 101
-1.282522e+00 2.983126e-01 -2.999607e+00 179 136 91
9.115269e-01 2.733522e-01 -2.944337e+00 239 217 183
-1.280825e+00 1.309042e-01 -2.912573e+00 255 229 201
1.001502e+00 1.623764e-02 -2.867121e+00 183 155 116
-1.362464e+00 -6.695499e-02 -2.940937e+00 232 211 206
-1.378549e+00 -1.101252e-02 -2.918176e+00 255 239 225
-1.322873e+00 -3.273599e-02 -2.960629e+00 188 170 160
-1.296781e+00 1.998588e-02 -2.939450e+00 187 167 153
1.259239e+00 1.988807e-01 -2.809577e+00 255 227 182
-1.391400e+00 6.255504e-02 -2.901756e+00 255 231 206
-1.383433e+00 1.108692e-01 -2.894462e+00 255 236 208
-1.423645e+00 3.027290e-01 -2.998242e+00 219 180 151
1.291922e+00 2.193012e-01 -2.811952e+00 234 195 152
-1.306048e+00 5.106174e-02 -2.921898e+00 242 216 199
1.376087e+00 6.774163e-02 -2.633381e+00 197 166 137
-8.509673e-01 2.341875e-01 -2.887119e+00 241 235 203
-1.423355e+00 2.654530e-01 -2.992187e+00 215 165 130
-1.431706e+00 3.614077e-01 -3.013440e+00 163 120 88
1.416311e+00 1.932073e-01 -2.710661e+00 248 220 190
-1.431682e+00 3.489051e-01 -3.009533e+00 160 114 88
-8.369280e-01 2.234427e-01 -2.882030e+00 241 237 212
1.054689e+00 1.758757e-01 -2.824461e+00 231 196 152
-1.361898e+00 3.435203e-01 -3.020705e+00 222 179 144
1.307347e+00 3.728932e-01 -3.017520e+00 5 6 6
-1.170541e+00 3.073983e-01 -2.993593e+00 244 210 165
6.269648e-01 2.827567e-01 -2.932121e+00 185 168 132
9.273460e-01 2.011566e-01 -2.842570e+00 204 172 123
-1.322548e+00 2.594533e-01 -2.984626e+00 240 200 151
-1.508465e+00 1.909629e-01 -2.953561e+00 211 176 136
1.037697e+00 2.012420e-01 -2.858905e+00 176 135 81
-1.451010e+00 5.265662e-02 -2.902997e+00 255 236 206
1.238424e+00 3.467224e-01 -2.993500e+00 134 102 64
-1.156739e+00 2.267701e-01 -2.942338e+00 255 223 174
1.245610e+00 3.411580e-01 -2.972940e+00 234 201 156
-1.474610e+00 3.803049e-01 -3.039532e+00 214 171 127
1.197700e+00 1.624996e-01 -2.796206e+00 254 221 168
1.402887e+00 1.733360e-01 -2.680776e+00 223 197 174
1.204950e+00 3.396447e-01 -3.004112e+00 196 171 140
1.014171e+00 1.756485e-01 -2.821818e+00 255 251 213
1.096644e+00 1.609127e-01 -2.817088e+00 254 255 228
1.095747e+00 1.601260e-01 -2.817948e+00 254 255 228
9.170049e-01 5.944581e-02 -2.873187e+00 208 161 105
1.249282e+00 3.474285e-01 -3.024750e+00 212 180 141
1.166532e+00 3.375939e-01 -3.017172e+00 114 96 76
1.180881e+00 3.341110e-01 -3.004468e+00 110 90 63
1.242831e+00 3.444194e-01 -2.986034e+00 122 92 58
2.081209e-01 3.258531e-01 -2.911395e+00 200 181 145
1.297588e+00 2.659243e-01 -2.885103e+00 240 206 158
-1.316248e+00 1.946223e-01 -2.932983e+00 227 184 131
-1.468418e+00 1.813458e-01 -2.924683e+00 95 61 24
-1.390874e+00 1.636077e-01 -2.910137e+00 216 173 120
1.035240e+00 1.873408e-01 -2.838752e+00 255 246 210
-1.301059e+00 -4.980945e-02 -2.973718e+00 215 198 181
1.361237e+00 2.161131e-01 -2.773419e+00 222 187 147
1.399144e+00 6.178550e-02 -2.636641e+00 255 237 223
1.267217e+00 2.970508e-01 -2.875959e+00 254 223 180
1.290835e+00 2.702175e-01 -2.879485e+00 202 165 120
1.170110e+00 2.765855e-01 -2.876584e+00 192 146 94
-1.427388e+00 2.232320e-01 -2.976823e+00 118 74 25
-1.443456e+00 2.068988e-01 -2.970932e+00 142 95 49
1.149442e+00 2.587319e-01 -2.865709e+00 255 224 187
-1.400263e+00 1.919339e-01 -2.945091e+00 229 186 135
1.125479e+00 2.408675e-01 -2.865163e+00 253 217 172
1.209813e+00 2.483079e-01 -2.855617e+00 255 237 188
1.183434e+00 2.503555e-01 -2.852172e+00 255 232 199
1.055410e+00 2.167162e-01 -2.860507e+00 212 171 119
1.041084e+00 2.057525e-01 -2.855850e+00 183 140 85
1.080261e+00 2.025685e-01 -2.842173e+00 251 215 168
8.917236e-01 1.856189e-01 -2.838547e+00 249 221 170
1.100380e+00 1.923702e-01 -2.831342e+00 255 234 195
1.160662e+00 1.890489e-01 -2.829625e+00 255 250 207
-1.261500e+00 1.022389e-02 -2.961396e+00 185 162 144
9.336534e-01 1.799799e-01 -2.828507e+00 228 196 149
-1.293392e+00 2.263233e-02 -2.937505e+00 188 162 139
1.178664e+00 1.781848e-01 -2.811762e+00 241 205 155
-1.347971e+00 -5.731864e-02 -2.934418e+00 230 210 193
1.133471e+00 1.487398e-01 -2.803724e+00 255 245 199
1.158648e+00 1.523113e-01 -2.796353e+00 255 249 204
1.266729e+00 1.696882e-01 -2.773410e+00 177 139 92
1.271711e+00 1.202805e-01 -2.700276e+00 173 128 79
1.406522e+00 8.404536e-02 -2.640193e+00 255 236 215
1.153159e+00 3.301157e-01 -2.970732e+00 219 181 136
9.710326e-01 2.560203e-01 -2.921389e+00 213 185 138
1.148097e+00 2.737640e-01 -2.880444e+00 208 167 121
1.041874e+00 2.364227e-01 -2.897111e+00 228 196 150
-9.776303e-02 2.966937e-01 -2.847262e+00 255 242 209
1.010645e+00 2.307961e-01 -2.893217e+00 227 196 150
1.072342e+00 2.273155e-01 -2.880256e+00 255 228 179
1.050542e+00 2.203117e-01 -2.876907e+00 210 174 122
8.162671e-01 2.232940e-01 -2.861222e+00 255 249 214
4.939606e-01 2.497651e-01 -2.838489e+00 237 221 189
8.658688e-02 2.630171e-01 -2.821034e+00 255 247 216
1.001704e+00 2.046829e-01 -2.861280e+00 193 160 109
1.204522e+00 2.211791e-01 -2.844370e+00 255 250 199
8.974585e-01 1.962035e-01 -2.850741e+00 216 182 134
9.643640e-01 1.869836e-01 -2.830260e+00 255 250 204
1.257634e+00 1.966571e-01 -2.810991e+00 253 217 165
8.726851e-01 1.644146e-01 -2.823779e+00 239 218 176
-1.376263e+00 -8.325977e-03 -2.916121e+00 255 241 217
1.347579e+00 2.116239e-01 -2.757646e+00 235 197 158
1.183839e+00 1.201019e-01 -2.773482e+00 255 219 183
1.218336e+00 3.389129e-01 -3.019746e+00 152 124 92
1.191827e+00 3.367756e-01 -3.011109e+00 206 185 154
1.113566e+00 3.092279e-01 -2.967831e+00 255 220 166
1.204225e+00 3.220821e-01 -2.929872e+00 158 120 76
1.130978e+00 2.842858e-01 -2.926199e+00 219 188 139
1.292641e+00 2.907376e-01 -2.900010e+00 241 201 149
1.234665e+00 3.140244e-01 -2.874692e+00 159 118 66
1.291058e+00 2.872851e-01 -2.896581e+00 176 136 90
1.161610e+00 2.712600e-01 -2.875242e+00 255 222 176
1.161610e+00 2.712600e-01 -2.875242e+00 255 222 176
1.118672e+00 2.217839e-01 -2.846003e+00 255 235 193
8.842859e-01 1.907939e-01 -2.849943e+00 255 235 185
2.707143e-01 2.211721e-01 -2.819516e+00 228 225 210
8.925507e-01 1.915412e-01 -2.848582e+00 255 240 190
1.103583e+00 1.973831e-01 -2.837387e+00 255 224 179
1.105699e+00 1.949175e-01 -2.834742e+00 227 192 150
9.498928e-01 1.930386e-01 -2.833038e+00 255 231 184
1.026811e+00 1.749075e-01 -2.824631e+00 176 121 63
1.012469e+00 1.680887e-01 -2.818097e+00 234 224 189
-1.353499e+00 1.932320e-02 -2.913114e+00 239 206 173
-1.307141e+00 -6.216902e-02 -2.977327e+00 202 190 176
1.152460e+00 1.633879e-01 -2.808796e+00 230 198 149
-1.321092e+00 -6.936929e-02 -2.955783e+00 190 159 131
1.187594e+00 3.362487e-01 -3.006981e+00 123 102 74
1.192539e+00 3.364003e-01 -3.006426e+00 99 80 51
1.194829e+00 3.365150e-01 -3.002073e+00 184 161 129
1.110421e+00 3.067117e-01 -2.967511e+00 228 192 139
1.236656e+00 3.265815e-01 -2.893844e+00 236 194 144
-1.419192e+00 2.652960e-01 -2.994655e+00 167 119 81
-4.639804e-01 3.137106e-01 -2.884879e+00 255 239 202
1.119579e+00 2.623094e-01 -2.880065e+00 227 192 152
1.229429e+00 2.616438e-01 -2.857945e+00 244 215 165
1.257772e+00 2.542570e-01 -2.852647e+00 255 244 196
1.088258e+00 2.282628e-01 -2.869336e+00 235 187 123
1.137775e+00 2.340896e-01 -2.854665e+00 255 244 201
2.716484e-01 2.549489e-01 -2.822695e+00 255 252 223
1.305429e+00 2.325997e-01 -2.837460e+00 253 213 164
9.342642e-01 2.002757e-01 -2.856151e+00 242 212 165
1.056500e+00 2.028349e-01 -2.846637e+00 206 161 105
9.913842e-01 1.997274e-01 -2.843738e+00 183 147 97
9.891407e-01 1.971979e-01 -2.841589e+00 255 238 190
9.532791e-01 1.902196e-01 -2.831905e+00 222 193 149
1.000537e+00 1.786490e-01 -2.822666e+00 234 205 165
1.155540e+00 1.631816e-01 -2.812901e+00 255 227 178
1.175099e+00 1.640103e-01 -2.807129e+00 255 225 172
1.138376e+00 1.524085e-01 -2.805821e+00 231 202 155
-1.343193e+00 -8.193873e-02 -2.955440e+00 208 179 152
1.333888e+00 1.796536e-01 -2.705181e+00 252 214 175
1.168859e+00 3.311601e-01 -2.970236e+00 227 190 145
1.112489e+00 2.754582e-01 -2.923665e+00 253 221 174
1.269579e+00 2.998835e-01 -2.880474e+00 253 219 177
1.190398e+00 2.822236e-01 -2.876957e+00 220 171 113
1.182895e+00 2.592685e-01 -2.859463e+00 255 223 181
1.182895e+00 2.592685e-01 -2.859463e+00 255 223 181
1.197357e+00 2.338782e-01 -2.851810e+00 192 155 107
1.107023e+00 2.251144e-01 -2.851575e+00 248 208 157
9.460884e-01 2.040178e-01 -2.860857e+00 217 186 139
9.460884e-01 2.040178e-01 -2.860857e+00 217 186 139
1.117110e+00 2.189008e-01 -2.844734e+00 245 214 169
1.199349e+00 2.125781e-01 -2.838316e+00 209 172 120
1.073735e+00 2.033662e-01 -2.844682e+00 240 202 153
1.128369e+00 2.003483e-01 -2.840760e+00 231 201 157
1.164845e+00 1.841756e-01 -2.824798e+00 223 195 148
1.005605e+00 1.742841e-01 -2.819974e+00 229 217 181
9.146781e-01 1.653547e-01 -2.825353e+00 239 208 164
9.508166e-01 1.714339e-01 -2.818748e+00 226 220 181
-1.337933e+00 -3.929432e-02 -2.948883e+00 255 247 231
1.166869e+00 1.595141e-01 -2.798693e+00 255 233 183
1.171864e+00 1.575967e-01 -2.800293e+00 233 196 144
1.107042e+00 1.456399e-01 -2.807959e+00 229 201 158
-1.371100e+00 -7.546557e-02 -2.934416e+00 182 161 139
1.179625e+00 1.502285e-01 -2.789980e+00 220 183 131
1.339191e+00 1.997448e-01 -2.739233e+00 246 209 165
1.202431e+00 1.378024e-01 -2.773079e+00 255 220 184
1.332643e+00 1.881521e-01 -2.721035e+00 202 166 121
1.314197e+00 1.494686e-01 -2.683455e+00 248 218 181
1.392487e+00 8.470346e-02 -2.639551e+00 237 219 207
1.235915e+00 3.416148e-01 -3.018469e+00 140 105 63
1.233410e+00 3.418486e-01 -3.016632e+00 127 92 50
1.242045e+00 3.168678e-01 -2.876874e+00 255 225 173
1.104682e+00 2.729283e-01 -2.918907e+00 250 219 169
1.260402e+00 2.554558e-01 -2.852830e+00 234 202 155
1.671370e-01 2.577952e-01 -2.820935e+00 240 231 202
-1.371607e+00 -5.491240e-02 -2.930352e+00 186 165 146
1.322428e+00 1.429902e-01 -2.674843e+00 244 228 202
-1.139702e+00 1.808991e-01 -2.965469e+00 254 234 197
-1.384035e+00 -1.366060e-01 -3.096883e+00 197 204 214
-1.388397e+00 -1.242268e-01 -3.084224e+00 27 23 24
9.465014e-01 1.872105e-01 -2.830609e+00 255 234 197
1.120426e+00 1.399253e-01 -2.803295e+00 250 226 192
1.184212e+00 1.211734e-01 -2.773074e+00 232 199 166
1.250091e+00 2.814948e-01 -2.864766e+00 202 173 137
1.220519e+00 2.745981e-01 -2.858806e+00 199 157 117
1.108058e+00 1.521073e-01 -2.811512e+00 254 231 199
1.089024e+00 1.491585e-01 -2.811095e+00 255 252 220
9.200832e-01 6.775908e-02 -2.879583e+00 222 192 153
