ply
format ascii 1.0
element face 0
property list uchar int vertex_indices
element vertex 909
property float x
property float y
property float z
property uchar diffuse_red
property uchar diffuse_green
property uchar diffuse_blue
end_header
-2.632556e-02 3.424753e-01 -2.909589e+00 211 192 160
-1.363890e+00 3.769977e-01 -3.044881e+00 209 173 137
1.123928e+00 2.718165e-01 -2.895085e+00 195 160 122
1.141154e+00 2.768257e-01 -2.887777e+00 255 233 197
1.065555e+00 2.873779e-01 -2.957509e+00 225 193 155
1.029896e+00 2.873245e-01 -2.981718e+00 195 167 130
1.101522e+00 2.959028e-01 -2.957260e+00 234 208 175
1.083490e+00 2.971388e-01 -2.963083e+00 201 165 124
1.083645e+00 2.968901e-01 -2.963487e+00 201 165 124
1.246184e+00 3.241699e-01 -2.884670e+00 207 164 121
1.180616e+00 3.149299e-01 -2.930110e+00 255 231 193
1.180407e+00 3.158543e-01 -2.937970e+00 224 191 153
1.067296e+00 3.051322e-01 -2.985966e+00 201 168 124
1.201507e+00 3.212856e-01 -2.927813e+00 164 129 91
1.053528e+00 3.026230e-01 -2.996176e+00 247 215 177
1.207843e+00 3.252980e-01 -2.920312e+00 255 220 181
1.114006e+00 3.237350e-01 -2.985388e+00 254 221 186
1.175666e+00 3.324687e-01 -2.963296e+00 190 156 118
1.131532e+00 3.305169e-01 -2.983383e+00 236 204 170
1.117172e+00 3.334261e-01 -3.003688e+00 198 168 134
-1.372290e+00 -9.066996e-02 -2.936474e+00 188 169 165
-1.371440e+00 -7.609381e-02 -2.936285e+00 158 137 134
-1.427154e+00 -5.059178e-02 -2.912318e+00 226 206 205
-1.342590e+00 -7.121415e-02 -2.955594e+00 208 181 170
-1.422328e+00 -2.043524e-02 -2.910663e+00 206 180 173
-1.343394e+00 -4.750387e-02 -2.946822e+00 218 206 209
-1.338760e+00 -4.393803e-02 -2.946959e+00 200 194 199
-1.468539e+00 3.629916e-03 -2.904295e+00 253 218 195
-1.468539e+00 3.629916e-03 -2.904295e+00 253 218 195
-1.335673e+00 -1.127141e-02 -2.932153e+00 188 168 161
-1.376296e+00 7.136429e-03 -2.912379e+00 255 242 223
-1.358047e+00 6.160746e-03 -2.920308e+00 245 216 197
-1.495845e+00 2.694189e-02 -2.907787e+00 237 201 179
-1.357771e+00 1.106017e-02 -2.919735e+00 174 143 122
-1.357771e+00 1.106017e-02 -2.919735e+00 174 143 122
-1.318890e+00 -2.671287e-04 -2.935654e+00 243 224 218
-1.341296e+00 2.766991e-02 -2.914461e+00 208 176 155
-1.364989e+00 3.537594e-02 -2.908097e+00 186 153 134
-1.310270e+00 2.048913e-02 -2.932672e+00 186 167 153
1.297250e+00 -2.785363e-03 -2.672661e+00 201 175 158
1.292130e+00 -7.082256e-02 -2.793835e+00 131 100 62
-1.327705e+00 3.991935e-02 -2.918064e+00 252 223 205
-1.498925e+00 6.157133e-02 -2.902685e+00 221 199 185
-1.310612e+00 3.836909e-02 -2.923516e+00 236 213 199
-1.323846e+00 4.452267e-02 -2.917246e+00 144 112 91
-1.469064e+00 7.009830e-02 -2.894918e+00 255 230 209
-1.475457e+00 7.041896e-02 -2.895427e+00 255 247 227
-1.354139e+00 5.761820e-02 -2.906855e+00 158 125 105
-1.473484e+00 7.383527e-02 -2.896771e+00 170 144 123
-1.316051e+00 6.384850e-02 -2.914191e+00 251 226 208
-1.407377e+00 9.428180e-02 -2.891559e+00 249 217 196
-1.362000e+00 9.784310e-02 -2.894749e+00 226 195 174
-1.363557e+00 1.015111e-01 -2.895497e+00 165 133 112
-1.258229e+00 8.093889e-02 -2.920992e+00 231 219 215
-1.282246e+00 8.480747e-02 -2.915799e+00 221 204 190
-1.341598e+00 1.039541e-01 -2.901254e+00 200 168 147
-1.366973e+00 1.290716e-01 -2.891779e+00 222 190 167
-1.218568e+00 1.028683e-01 -2.918679e+00 255 248 252
-1.309457e+00 1.203521e-01 -2.903906e+00 181 149 129
-1.359170e+00 1.312177e-01 -2.894273e+00 197 163 136
-1.322962e+00 1.288913e-01 -2.900909e+00 245 214 193
-1.298255e+00 1.288073e-01 -2.905318e+00 239 205 180
-1.298255e+00 1.288073e-01 -2.905318e+00 239 205 180
-1.358974e+00 1.408144e-01 -2.896317e+00 185 148 120
-1.305806e+00 1.331079e-01 -2.904014e+00 182 146 120
-1.305611e+00 1.333571e-01 -2.903899e+00 182 146 120
-1.268423e+00 1.285324e-01 -2.912334e+00 214 188 165
-1.508359e+00 1.524220e-01 -2.900168e+00 253 225 200
-1.458660e+00 1.503989e-01 -2.901696e+00 236 209 179
-1.484797e+00 1.557370e-01 -2.902309e+00 202 162 130
-1.550274e+00 1.672647e-01 -2.903465e+00 186 137 98
1.298673e+00 1.061438e-01 -2.660793e+00 230 203 181
-1.488135e+00 1.630056e-01 -2.908327e+00 206 164 126
-1.501217e+00 1.701292e-01 -2.906362e+00 166 126 103
-1.333860e+00 1.591355e-01 -2.905642e+00 253 211 169
-1.346781e+00 1.592922e-01 -2.905796e+00 157 113 74
-1.408263e+00 1.658517e-01 -2.908519e+00 229 192 147
-1.486573e+00 1.715446e-01 -2.912115e+00 161 120 95
-1.410266e+00 1.683724e-01 -2.911645e+00 255 231 186
-1.522752e+00 1.793010e-01 -2.905505e+00 139 91 53
-1.452778e+00 1.685467e-01 -2.919654e+00 156 112 73
-1.288846e+00 1.631345e-01 -2.911067e+00 198 152 116
-1.346566e+00 1.700432e-01 -2.913816e+00 203 157 108
-1.346616e+00 1.700384e-01 -2.913874e+00 203 157 108
-1.314249e+00 1.681534e-01 -2.914478e+00 153 110 67
-1.314467e+00 1.677675e-01 -2.914953e+00 153 110 67
-1.215538e+00 1.643118e-01 -2.911240e+00 194 150 115
-1.488770e+00 1.812022e-01 -2.917703e+00 138 97 79
-1.345695e+00 1.735886e-01 -2.917234e+00 247 201 152
-1.468049e+00 1.783970e-01 -2.930881e+00 235 194 159
1.318267e+00 1.319664e-01 -2.662626e+00 255 248 225
-1.212591e+00 1.738264e-01 -2.911577e+00 190 146 111
-1.184224e+00 1.753902e-01 -2.909672e+00 205 161 126
-1.184146e+00 1.753858e-01 -2.909635e+00 205 161 126
-1.315352e+00 1.800907e-01 -2.922209e+00 198 154 107
-1.427186e+00 1.815245e-01 -2.933210e+00 144 95 52
-1.336271e+00 1.795813e-01 -2.926983e+00 223 177 127
-1.390978e+00 1.825745e-01 -2.932332e+00 239 189 139
-1.295615e+00 1.838276e-01 -2.925894e+00 196 149 101
-1.410512e+00 1.862728e-01 -2.939113e+00 206 158 114
-1.143769e+00 1.867871e-01 -2.910232e+00 212 180 142
-1.143966e+00 1.868439e-01 -2.910025e+00 212 180 142
-1.082894e+00 1.870396e-01 -2.903865e+00 226 198 161
-1.108747e+00 1.872597e-01 -2.907365e+00 218 193 160
-1.114979e+00 1.872505e-01 -2.907355e+00 223 194 162
-1.412273e+00 1.896114e-01 -2.942661e+00 163 116 68
-1.362417e+00 1.897696e-01 -2.937262e+00 233 183 134
-1.362011e+00 1.902215e-01 -2.936437e+00 233 183 134
-1.438064e+00 1.913258e-01 -2.943960e+00 225 178 134
-1.437546e+00 1.918503e-01 -2.943151e+00 225 178 134
-1.134081e+00 1.881707e-01 -2.912925e+00 254 222 185
-1.171342e+00 1.892672e-01 -2.915596e+00 187 142 103
-1.462711e+00 1.980128e-01 -2.944128e+00 143 100 66
-1.428383e+00 1.946515e-01 -2.949876e+00 123 76 32
-1.462550e+00 2.010161e-01 -2.946763e+00 204 161 126
-1.284933e+00 1.948917e-01 -2.935959e+00 223 177 127
1.234625e+00 1.185851e-01 -2.749048e+00 201 161 126
-1.031729e+00 1.998012e-01 -2.901260e+00 230 206 172
-1.390930e+00 1.971495e-01 -2.953373e+00 200 151 108
-1.390893e+00 1.972061e-01 -2.953310e+00 200 151 108
-1.132887e+00 2.001367e-01 -2.914726e+00 228 193 155
-1.451170e+00 2.001206e-01 -2.957073e+00 115 68 26
-1.219934e+00 2.002139e-01 -2.927455e+00 201 157 118
-1.487446e+00 2.056486e-01 -2.952321e+00 214 175 144
-1.298443e+00 1.987489e-01 -2.941030e+00 252 206 155
-1.407212e+00 1.995728e-01 -2.955303e+00 108 61 27
-1.162956e+00 2.022003e-01 -2.919338e+00 210 165 124
-6.061592e-01 2.030250e-01 -2.853177e+00 231 216 193
1.250285e+00 1.333349e-01 -2.738501e+00 179 139 108
1.377586e+00 1.655890e-01 -2.669169e+00 185 160 146
1.377586e+00 1.655890e-01 -2.669169e+00 185 160 146
-1.309107e+00 2.076815e-01 -2.952219e+00 255 212 160
-1.422265e+00 2.048604e-01 -2.972592e+00 175 126 84
-1.172361e+00 2.115959e-01 -2.928055e+00 252 210 168
1.373193e+00 1.715117e-01 -2.673019e+00 167 139 119
1.227687e+00 1.358726e-01 -2.758028e+00 252 212 176
-1.192689e+00 2.187219e-01 -2.934978e+00 238 191 147
-1.427812e+00 2.112484e-01 -2.980544e+00 161 114 72
-1.443672e+00 2.172930e-01 -2.975403e+00 232 188 147
1.189195e+00 1.380846e-01 -2.772072e+00 199 155 116
-1.176731e+00 2.212653e-01 -2.933877e+00 255 211 169
-1.440853e+00 2.164030e-01 -2.978431e+00 117 72 34
-1.418104e+00 2.146074e-01 -2.980633e+00 253 205 159
-4.428940e-01 2.206830e-01 -2.839765e+00 218 199 169
-1.246728e+00 2.217007e-01 -2.949670e+00 205 156 113
-1.446831e+00 2.213745e-01 -2.975785e+00 155 111 72
1.248056e+00 1.480796e-01 -2.751642e+00 208 168 133
-1.263778e+00 2.250931e-01 -2.956951e+00 194 146 97
-1.225370e+00 2.291551e-01 -2.948903e+00 251 207 160
-1.216710e+00 2.289654e-01 -2.952549e+00 194 150 103
1.250279e+00 1.572073e-01 -2.755911e+00 254 219 185
-2.375431e-01 2.271456e-01 -2.826434e+00 231 214 184
-8.496173e-01 2.395354e-01 -2.889234e+00 255 245 211
-1.213561e+00 2.332273e-01 -2.952381e+00 255 212 164
-1.262252e+00 2.320398e-01 -2.960717e+00 255 217 170
-1.375459e+00 2.283130e-01 -2.986968e+00 212 165 121
-1.205645e+00 2.351680e-01 -2.952963e+00 255 218 170
-8.507503e-01 2.430559e-01 -2.890704e+00 219 203 169
1.245840e+00 1.620929e-01 -2.766106e+00 214 174 139
-1.396543e+00 2.345873e-01 -2.993373e+00 151 105 72
-1.269939e+00 2.435672e-01 -2.969070e+00 244 197 150
-1.138014e+00 2.499686e-01 -2.945638e+00 230 196 151
-9.927278e-01 2.530621e-01 -2.920670e+00 255 240 210
1.391791e+00 1.978009e-01 -2.707687e+00 209 173 140
-7.709259e-02 2.493777e-01 -2.816840e+00 253 232 195
-1.164552e+00 2.584749e-01 -2.956795e+00 208 165 120
-1.422263e+00 2.604142e-01 -2.989788e+00 157 108 75
1.043933e+00 1.712651e-01 -2.817769e+00 209 170 128
-1.314734e+00 2.539582e-01 -2.989486e+00 228 185 143
1.204737e+00 1.706796e-01 -2.799410e+00 225 192 151
1.191537e+00 1.703101e-01 -2.802430e+00 229 196 151
4.619260e-01 2.150491e-01 -2.823524e+00 205 186 153
1.213689e+00 1.733667e-01 -2.801108e+00 255 238 197
-1.262487e+00 2.613593e-01 -2.979847e+00 206 162 120
1.336790e+00 2.006817e-01 -2.736728e+00 252 218 180
-1.214588e+00 2.656466e-01 -2.972101e+00 250 207 162
-1.418824e+00 2.700662e-01 -2.992489e+00 225 179 148
-1.418824e+00 2.700662e-01 -2.992489e+00 225 179 148
-1.423654e+00 2.700154e-01 -2.993961e+00 134 87 57
1.202920e+00 1.777933e-01 -2.804975e+00 238 205 162
-1.391644e+00 2.706461e-01 -2.996298e+00 200 156 119
1.017076e+00 1.864346e-01 -2.826089e+00 207 166 122
-1.204149e+00 2.738864e-01 -2.973618e+00 163 120 75
-1.271141e+00 2.734731e-01 -2.985396e+00 225 181 136
-1.270710e+00 2.739151e-01 -2.984350e+00 225 181 136
-1.240415e+00 2.759366e-01 -2.980139e+00 212 167 126
-1.397457e+00 2.808678e-01 -2.996425e+00 193 148 115
-4.215314e-01 2.861296e-01 -2.849878e+00 234 215 185
8.830006e-01 1.938367e-01 -2.845872e+00 255 232 193
-1.214444e+00 2.799289e-01 -2.978552e+00 176 133 90
-1.243690e+00 2.819325e-01 -2.985033e+00 197 154 112
1.347320e+00 2.116761e-01 -2.757685e+00 254 221 184
1.139932e+00 1.901455e-01 -2.829672e+00 255 224 180
-1.270670e+00 2.853986e-01 -2.989607e+00 241 194 152
-1.279416e+00 2.853363e-01 -2.988919e+00 240 193 151
-1.126583e+00 2.873240e-01 -2.965123e+00 255 232 189
1.343444e+00 2.136932e-01 -2.758356e+00 225 189 153
-1.220462e+00 2.886846e-01 -2.984326e+00 255 220 176
2.479652e-01 2.647730e-01 -2.823534e+00 255 241 206
1.022811e+00 2.007204e-01 -2.840023e+00 193 155 110
-1.093956e+00 2.936119e-01 -2.963853e+00 211 172 129
1.361361e+00 2.152777e-01 -2.766243e+00 203 167 130
-7.342699e-01 2.986222e-01 -2.904246e+00 239 226 192
-1.364931e+00 2.963013e-01 -3.001546e+00 253 209 174
-1.102366e+00 2.949197e-01 -2.968980e+00 201 160 116
1.054709e+00 2.043549e-01 -2.839561e+00 254 215 170
1.361647e+00 2.194358e-01 -2.767112e+00 242 207 169
-1.366770e+00 2.991511e-01 -3.004856e+00 216 172 135
-1.078380e+00 3.016951e-01 -2.966564e+00 230 192 151
-1.101455e+00 3.020614e-01 -2.970017e+00 171 128 83
-1.101161e+00 3.023420e-01 -2.969198e+00 171 128 83
-1.400425e+00 3.092520e-01 -2.998882e+00 241 204 178
1.206430e+00 2.062666e-01 -2.831671e+00 222 188 142
-9.533430e-01 3.048304e-01 -2.948396e+00 255 237 204
-7.188694e-01 3.088817e-01 -2.911093e+00 255 249 217
-1.218346e+00 3.040784e-01 -2.993744e+00 210 167 124
1.227389e+00 2.096324e-01 -2.825979e+00 188 146 104
-3.261219e-01 3.092118e-01 -2.864375e+00 255 245 208
-1.372408e+00 3.157961e-01 -3.006132e+00 210 170 145
-1.248634e-01 3.059976e-01 -2.846523e+00 255 251 216
-1.069631e+00 3.119320e-01 -2.975437e+00 182 145 103
-1.297907e+00 3.161537e-01 -3.007088e+00 240 196 151
-1.333429e+00 3.176796e-01 -3.009159e+00 246 201 162
-1.283135e-01 3.124519e-01 -2.856314e+00 252 230 191
8.908355e-02 3.022557e-01 -2.846813e+00 254 231 197
-3.743958e-01 3.201711e-01 -2.881573e+00 254 229 192
-1.262253e+00 3.239012e-01 -3.006185e+00 254 214 172
1.999372e-01 2.955656e-01 -2.849586e+00 255 241 204
-4.446083e-01 3.220991e-01 -2.892037e+00 253 230 196
-1.299927e+00 3.278123e-01 -3.011522e+00 192 148 103
2.008823e-01 2.969217e-01 -2.854643e+00 241 221 184
1.101738e+00 2.306328e-01 -2.856253e+00 211 165 115
-1.360488e+00 3.319654e-01 -3.019969e+00 162 119 87
-6.653201e-01 3.273573e-01 -2.929875e+00 252 228 192
-6.653201e-01 3.273573e-01 -2.929875e+00 252 228 192
-1.250394e+00 3.295705e-01 -3.017545e+00 154 107 65
-1.209725e+00 3.278948e-01 -3.018689e+00 193 161 125
-1.261230e+00 3.331865e-01 -3.016338e+00 228 184 139
-1.333837e+00 3.379992e-01 -3.018433e+00 233 190 148
-2.752557e-01 3.293168e-01 -2.883824e+00 192 168 132
-1.309952e+00 3.379331e-01 -3.021260e+00 227 182 141
-1.427365e+00 3.627993e-01 -3.010711e+00 162 121 91
-1.313674e+00 3.470383e-01 -3.027767e+00 211 168 126
-1.374057e+00 3.596951e-01 -3.016242e+00 133 91 67
2.492999e-01 3.132014e-01 -2.868105e+00 242 220 183
-1.307226e+00 3.484608e-01 -3.031556e+00 152 110 69
-1.427371e+00 3.667833e-01 -3.012000e+00 221 180 152
7.687405e-01 2.586641e-01 -2.908573e+00 250 231 201
2.444973e-01 3.131459e-01 -2.878982e+00 239 217 178
9.601133e-01 2.528007e-01 -2.913929e+00 238 210 173
-7.322552e-02 3.416763e-01 -2.890212e+00 240 220 183
-1.413006e+00 3.781792e-01 -3.022874e+00 90 44 11
1.135738e+00 2.665045e-01 -2.873072e+00 255 229 199
1.163168e+00 2.682321e-01 -2.866197e+00 216 178 142
-1.318433e+00 3.595111e-01 -3.064485e+00 90 61 31
1.180361e+00 2.713763e-01 -2.863445e+00 203 156 113
1.150508e+00 2.696419e-01 -2.872195e+00 216 177 144
-1.365644e+00 3.813902e-01 -3.045626e+00 125 89 53
-1.392777e+00 3.885093e-01 -3.043508e+00 116 78 44
-1.414340e+00 3.975284e-01 -3.051116e+00 114 69 36
1.219418e+00 3.136305e-01 -2.877101e+00 255 225 180
1.217373e+00 3.151711e-01 -2.879962e+00 215 173 125
1.242170e+00 3.213671e-01 -2.880779e+00 255 217 174
1.234009e+00 3.221270e-01 -2.888394e+00 254 221 176
1.090485e+00 3.001729e-01 -2.965794e+00 198 165 120
1.194828e+00 3.167118e-01 -2.929587e+00 255 230 189
1.072188e+00 3.033923e-01 -2.982816e+00 242 207 162
1.111981e+00 3.091069e-01 -2.967035e+00 255 222 178
1.132245e+00 3.256460e-01 -2.967203e+00 212 177 135
1.184280e+00 3.306463e-01 -2.958080e+00 196 161 123
1.192100e+00 3.340668e-01 -2.957405e+00 190 156 121
1.173350e+00 3.352257e-01 -2.966497e+00 241 208 170
1.195693e+00 3.381162e-01 -2.959666e+00 241 208 175
1.248358e+00 3.438094e-01 -3.018517e+00 168 138 102
-1.390321e+00 -8.039715e-02 -2.927897e+00 255 235 230
-1.434992e+00 -2.995951e-02 -2.908164e+00 232 205 196
-1.418675e+00 -1.426421e-02 -2.907803e+00 242 215 209
-1.461045e+00 -7.357906e-03 -2.908322e+00 211 180 160
-1.441421e+00 -6.670509e-03 -2.908474e+00 232 199 183
-1.324330e+00 -4.854477e-02 -2.962519e+00 220 201 203
-1.412156e+00 7.870991e-03 -2.906260e+00 188 158 147
-1.514333e+00 4.425005e-02 -2.909868e+00 218 183 161
-1.390136e+00 5.877332e-02 -2.897856e+00 185 157 133
-1.370325e+00 5.646999e-02 -2.904670e+00 190 159 138
-1.384654e+00 6.360628e-02 -2.900049e+00 251 224 203
-1.377139e+00 6.400828e-02 -2.899741e+00 240 210 186
-1.390829e+00 9.456270e-02 -2.892436e+00 202 170 149
-1.334058e+00 8.209606e-02 -2.906404e+00 222 189 170
-1.212735e+00 7.028900e-02 -2.933331e+00 209 205 218
-1.556928e+00 1.109116e-01 -2.908701e+00 255 240 219
-1.275059e+00 9.954349e-02 -2.913842e+00 254 242 230
-1.270140e+00 1.009068e-01 -2.911167e+00 255 243 231
-1.379140e+00 1.212703e-01 -2.891782e+00 222 192 168
1.403577e+00 7.867293e-02 -2.634878e+00 228 187 158
-1.309316e+00 1.334496e-01 -2.903082e+00 248 212 186
-1.267734e+00 1.323637e-01 -2.912545e+00 255 231 208
-1.337495e+00 1.525482e-01 -2.904381e+00 252 213 180
-1.305504e+00 1.558348e-01 -2.905694e+00 253 214 176
-1.246740e+00 1.530256e-01 -2.910634e+00 255 228 196
-1.364167e+00 1.651088e-01 -2.913418e+00 214 166 121
-1.411360e+00 1.734266e-01 -2.920075e+00 207 159 110
-1.467796e+00 1.746092e-01 -2.928806e+00 161 117 82
-1.441047e+00 1.767519e-01 -2.925655e+00 225 179 135
-1.076827e+00 1.654196e-01 -2.901392e+00 242 226 210
-1.425142e+00 1.769525e-01 -2.927877e+00 205 158 109
1.264183e+00 1.187377e-01 -2.703922e+00 223 186 150
-1.434811e+00 1.849125e-01 -2.933194e+00 216 169 126
1.321596e+00 1.390522e-01 -2.665502e+00 218 192 167
-1.335931e+00 1.815933e-01 -2.930476e+00 182 135 85
-1.427111e+00 1.875548e-01 -2.940307e+00 161 114 68
-1.427111e+00 1.875548e-01 -2.940307e+00 161 114 68
-1.177772e+00 1.855434e-01 -2.917289e+00 241 197 158
-1.303990e+00 1.866186e-01 -2.930922e+00 176 129 83
-1.448282e+00 1.947843e-01 -2.942946e+00 182 139 96
-1.411195e+00 1.924919e-01 -2.945009e+00 221 173 125
-1.411053e+00 1.928863e-01 -2.944384e+00 221 173 125
-1.227562e+00 1.922024e-01 -2.923183e+00 199 155 116
-1.228475e+00 1.910140e-01 -2.925285e+00 199 155 116
-1.405519e+00 1.971335e-01 -2.951700e+00 180 130 89
-1.417974e+00 1.979221e-01 -2.952197e+00 183 135 95
-1.329445e+00 1.994031e-01 -2.948338e+00 250 203 154
-1.392514e+00 2.009255e-01 -2.956487e+00 128 81 37
-1.276711e+00 2.029931e-01 -2.943900e+00 230 181 137
-1.059093e+00 2.106890e-01 -2.909491e+00 246 220 187
-1.457066e+00 2.133457e-01 -2.963766e+00 201 156 115
-1.411581e+00 2.074353e-01 -2.972751e+00 151 100 54
-1.390142e+00 2.094399e-01 -2.971251e+00 228 176 127
7.340403e-01 1.002391e-01 -2.890541e+00 67 59 43
-1.247717e+00 2.165345e-01 -2.944336e+00 193 146 100
-4.655185e-01 2.167026e-01 -2.842906e+00 255 236 209
-1.249207e+00 2.173602e-01 -2.949516e+00 232 185 139
-1.153451e+00 2.235348e-01 -2.931719e+00 228 190 146
-1.159852e+00 2.237973e-01 -2.933087e+00 239 197 155
-1.188561e+00 2.235392e-01 -2.939531e+00 217 173 128
-1.313929e+00 2.194040e-01 -2.963867e+00 218 170 121
-1.156598e+00 2.249208e-01 -2.934140e+00 255 237 193
1.254994e+00 1.558021e-01 -2.752136e+00 238 200 164
1.236471e+00 1.524211e-01 -2.764492e+00 181 139 101
-1.165497e+00 2.334679e-01 -2.939982e+00 255 225 181
1.247389e+00 1.567720e-01 -2.757799e+00 179 139 104
-1.325392e+00 2.320280e-01 -2.976633e+00 251 208 157
-1.263588e+00 2.352900e-01 -2.962560e+00 204 154 105
-1.225871e+00 2.406289e-01 -2.961707e+00 214 170 125
-7.942661e-01 2.572427e-01 -2.889903e+00 243 234 201
-9.963819e-01 2.587789e-01 -2.923229e+00 255 250 220
1.392869e+00 2.006479e-01 -2.707668e+00 238 203 168
-1.158404e+00 2.586383e-01 -2.955342e+00 200 159 113
-1.200762e+00 2.573932e-01 -2.963927e+00 249 205 160
-1.210583e+00 2.582089e-01 -2.967127e+00 202 158 113
-1.050484e+00 2.647598e-01 -2.935024e+00 231 207 171
-1.136853e+00 2.619945e-01 -2.951802e+00 210 174 132
-1.136853e+00 2.619945e-01 -2.951802e+00 210 174 132
-8.015215e-01 2.676830e-01 -2.895992e+00 237 228 197
-3.125381e-01 2.650192e-01 -2.834093e+00 255 249 219
-1.228962e+00 2.598018e-01 -2.972020e+00 234 190 145
-1.251082e+00 2.585927e-01 -2.978809e+00 215 170 128
-4.274000e-01 2.667109e-01 -2.848771e+00 254 240 212
-1.199204e+00 2.619535e-01 -2.967497e+00 246 202 157
1.215317e+00 1.769061e-01 -2.800601e+00 245 210 170
-1.046890e+00 2.698345e-01 -2.938659e+00 231 207 171
-5.599370e-01 2.736349e-01 -2.864024e+00 243 232 200
-8.871423e-01 2.725090e-01 -2.913504e+00 195 171 133
-6.063110e-01 2.745887e-01 -2.872841e+00 236 219 189
-3.677632e-01 2.751170e-01 -2.845377e+00 237 218 191
1.020138e+00 1.876730e-01 -2.828234e+00 244 203 159
-1.214570e+00 2.742766e-01 -2.975600e+00 206 163 118
-1.166429e+00 2.790064e-01 -2.970045e+00 203 165 124
-1.383777e+00 2.816908e-01 -2.996012e+00 221 175 142
8.248163e-02 2.650669e-01 -2.820585e+00 254 242 207
-1.274878e+00 2.825707e-01 -2.989173e+00 221 174 132
-1.115681e+00 2.868278e-01 -2.962643e+00 212 173 130
-1.217822e+00 2.867050e-01 -2.981946e+00 225 182 139
-1.202061e+00 2.867285e-01 -2.980303e+00 223 182 136
-1.097450e+00 2.907436e-01 -2.961811e+00 215 174 130
-8.026343e-01 2.975618e-01 -2.913065e+00 222 206 173
9.508740e-01 2.041078e-01 -2.851954e+00 242 210 171
-1.304987e+00 2.996348e-01 -3.000451e+00 246 201 159
-1.057965e+00 3.016665e-01 -2.962408e+00 254 219 177
-1.386806e+00 3.080682e-01 -3.001184e+00 174 138 114
-1.404025e+00 3.096669e-01 -2.999130e+00 194 154 129
-1.404025e+00 3.096669e-01 -2.999130e+00 194 154 129
-1.353834e+00 3.124290e-01 -3.005428e+00 249 206 171
-2.622149e-01 3.072751e-01 -2.858500e+00 250 228 192
-1.070897e+00 3.099987e-01 -2.972536e+00 227 190 148
-1.324889e+00 3.157778e-01 -3.009893e+00 238 196 154
-1.239516e+00 3.143933e-01 -3.001908e+00 198 155 110
-1.239516e+00 3.143933e-01 -3.001908e+00 198 155 110
-1.421089e+00 3.300958e-01 -2.998140e+00 214 174 149
-1.421089e+00 3.300958e-01 -2.998140e+00 214 174 149
-1.411316e+00 3.356112e-01 -3.002050e+00 207 167 142
-9.612338e-01 3.227651e-01 -2.974652e+00 234 207 177
-1.289610e+00 3.292083e-01 -3.013117e+00 234 189 147
1.066846e+00 2.289996e-01 -2.879436e+00 214 182 141
8.426491e-02 3.130142e-01 -2.859253e+00 249 229 194
-2.747803e-01 3.314147e-01 -2.886435e+00 236 212 176
-1.343646e+00 3.518916e-01 -3.024012e+00 189 146 111
-1.340157e+00 3.516408e-01 -3.025778e+00 229 186 149
-1.311271e+00 3.498567e-01 -3.028472e+00 144 102 61
-1.289802e+00 3.453149e-01 -3.035610e+00 152 113 70
-1.373265e+00 3.589697e-01 -3.022354e+00 189 149 123
-1.403100e+00 3.662183e-01 -3.014285e+00 212 168 138
5.805490e-01 2.779633e-01 -2.902181e+00 241 222 190
-1.012900e-01 3.376465e-01 -2.885546e+00 211 189 150
-1.352402e+00 3.644314e-01 -3.031449e+00 203 163 128
1.259590e-01 3.353831e-01 -2.902826e+00 226 209 179
-1.475811e+00 3.977629e-01 -3.053449e+00 227 182 141
-1.475811e+00 3.977629e-01 -3.053449e+00 227 182 141
-1.483490e+00 3.973189e-01 -3.058842e+00 227 182 144
1.060111e+00 2.866180e-01 -2.963372e+00 187 153 115
1.062089e+00 2.893588e-01 -2.960163e+00 253 220 182
1.086743e+00 2.997321e-01 -2.967497e+00 255 232 187
1.198219e+00 3.147886e-01 -2.918167e+00 255 226 185
1.234078e+00 3.253337e-01 -2.889797e+00 192 151 106
1.077932e+00 3.086329e-01 -2.984901e+00 205 172 132
1.183147e+00 3.217070e-01 -2.943165e+00 225 192 153
1.159216e+00 3.221891e-01 -2.956089e+00 244 214 175
1.108582e+00 3.216748e-01 -2.980966e+00 254 223 188
1.148226e+00 3.278146e-01 -2.967164e+00 208 174 136
1.269448e+00 3.385871e-01 -2.944093e+00 175 142 109
-1.476454e+00 9.694932e-02 -2.876708e+00 255 253 231
1.391289e+00 9.141859e-02 -2.702840e+00 255 252 249
1.372576e+00 1.049047e-01 -2.680862e+00 255 252 249
8.048790e-01 2.677771e-03 -2.941241e+00 15 17 16
1.087451e+00 1.301742e-01 -2.839599e+00 254 253 236
1.360331e+00 2.520628e-01 -2.882403e+00 20 22 21
-1.416735e+00 1.948990e-01 -2.952209e+00 154 103 58
9.774764e-01 3.759736e-02 -2.880682e+00 250 243 234
-1.337852e+00 3.223248e-01 -3.008324e+00 234 187 141
-1.337852e+00 3.223248e-01 -3.008324e+00 234 187 141
-1.363008e+00 8.195113e-02 -2.902113e+00 192 157 126
-7.744968e-01 1.866191e-01 -2.872492e+00 254 238 212
9.967310e-01 2.040631e-01 -2.837031e+00 215 178 134
-1.420372e+00 6.062627e-02 -2.902940e+00 255 237 212
1.135453e+00 3.408073e-01 -3.012975e+00 199 179 156
1.254880e+00 9.775440e-02 -2.708067e+00 255 225 199
1.280859e+00 1.473819e-01 -2.699852e+00 254 224 190
1.143010e+00 2.161611e-01 -2.844493e+00 255 242 210
1.292614e+00 2.317321e-01 -2.829406e+00 253 214 171
-1.267521e+00 3.263302e-01 -3.012816e+00 252 207 157
-1.323127e+00 1.224507e-02 -2.927660e+00 224 194 168
1.239996e+00 1.044587e-01 -2.730971e+00 198 162 129
-1.319679e+00 1.975637e-01 -2.944544e+00 245 198 145
-1.155327e+00 2.079703e-01 -2.922348e+00 200 150 103
1.131096e+00 2.573016e-01 -2.870945e+00 255 225 201
-1.407676e+00 3.801345e-01 -3.028483e+00 80 35 2
-1.343845e+00 -6.076043e-02 -2.945659e+00 154 122 100
-1.480153e+00 8.738302e-02 -2.898411e+00 255 251 231
-1.560969e+00 8.430242e-02 -2.910611e+00 253 219 194
-1.428837e+00 1.045414e-01 -2.889001e+00 244 207 178
8.427917e-01 7.116324e-02 -2.896924e+00 251 231 203
-1.401190e+00 2.281001e-01 -2.990183e+00 76 39 13
-2.294176e-01 2.585136e-01 -2.827055e+00 215 193 156
-3.879356e-01 2.687753e-01 -2.844558e+00 227 210 180
1.038125e+00 1.972161e-01 -2.830718e+00 250 226 196
1.074281e+00 2.377672e-01 -2.880974e+00 255 234 192
-1.386079e+00 3.575004e-01 -3.015580e+00 145 101 76
-1.385328e+00 3.586228e-01 -3.012478e+00 145 101 76
-1.455699e+00 4.042023e-01 -3.039818e+00 110 64 31
1.266266e+00 3.348043e-01 -2.929451e+00 183 149 112
-1.438885e+00 4.800309e-02 -2.895425e+00 224 193 167
-1.354189e+00 3.719027e-02 -2.910977e+00 251 216 186
1.386030e+00 8.232406e-02 -2.638528e+00 255 242 242
-1.182812e+00 1.395960e-01 -2.910920e+00 244 220 192
-1.117755e+00 1.429759e-01 -2.903038e+00 245 224 197
1.234651e+00 8.253920e-02 -2.724584e+00 227 192 160
-8.936270e-01 2.023254e-01 -2.885525e+00 255 241 209
-1.494810e+00 2.063350e-01 -2.961668e+00 175 132 98
-1.111480e+00 2.059702e-01 -2.914377e+00 236 198 151
1.388784e+00 1.706068e-01 -2.673878e+00 255 253 250
-9.554476e-01 2.371382e-01 -2.905781e+00 255 249 214
-1.191103e+00 2.337948e-01 -2.948996e+00 253 207 156
-1.208892e+00 2.413010e-01 -2.958627e+00 255 215 165
-3.456016e-01 2.726096e-01 -2.842760e+00 223 204 171
-1.430112e+00 2.737799e-01 -2.993034e+00 162 112 89
1.329582e+00 2.085827e-01 -2.763353e+00 249 211 172
9.856831e-01 2.027473e-01 -2.852123e+00 227 190 148
1.093473e+00 2.193964e-01 -2.842317e+00 255 243 209
-1.103102e+00 3.105653e-01 -2.979000e+00 254 222 181
-1.138896e+00 3.131703e-01 -2.996536e+00 224 191 148
-1.272113e+00 3.263528e-01 -3.011527e+00 248 202 152
-1.272113e+00 3.263528e-01 -3.011527e+00 248 202 152
1.077080e+00 2.510881e-01 -2.896470e+00 241 212 170
1.216419e+00 2.833905e-01 -2.853953e+00 236 187 146
-1.384934e+00 3.749918e-01 -3.029061e+00 210 172 133
-1.589617e+00 4.106836e-02 -2.926373e+00 188 147 125
-1.376785e+00 7.819633e-02 -2.895432e+00 195 158 129
-1.549493e+00 1.057039e-01 -2.906060e+00 135 103 82
-1.323519e+00 9.460059e-02 -2.903572e+00 239 210 180
-1.323975e+00 9.368740e-02 -2.905724e+00 239 210 180
1.301514e+00 6.504298e-02 -2.651040e+00 255 249 244
-1.282757e+00 1.493387e-01 -2.906701e+00 215 171 132
-9.833538e-01 1.289087e-01 -2.905047e+00 234 219 200
-1.209008e+00 1.475227e-01 -2.909124e+00 192 150 111
-1.250027e+00 1.541428e-01 -2.909461e+00 255 216 174
-1.224221e+00 1.612549e-01 -2.907678e+00 251 207 160
-1.224221e+00 1.612549e-01 -2.907678e+00 251 207 160
1.296567e+00 1.226343e-01 -2.670642e+00 255 247 225
-1.025175e+00 1.853245e-01 -2.904649e+00 255 232 195
-1.443921e+00 1.958462e-01 -2.952639e+00 170 121 78
-1.455847e+00 2.001959e-01 -2.955419e+00 129 84 43
-1.479695e+00 2.174327e-01 -2.979450e+00 228 179 138
8.279013e-01 1.092156e-01 -2.868802e+00 203 194 187
-1.155220e+00 2.268019e-01 -2.938392e+00 255 227 180
-1.041048e+00 2.369765e-01 -2.921461e+00 255 250 207
-1.302336e+00 2.273634e-01 -2.970911e+00 206 156 103
-1.302336e+00 2.273634e-01 -2.970911e+00 206 156 103
8.782603e-01 1.525146e-01 -2.825495e+00 252 235 219
9.082886e-01 1.558242e-01 -2.820356e+00 255 249 229
9.072524e-01 1.571341e-01 -2.818808e+00 255 249 229
-1.433659e+00 2.398480e-01 -2.979157e+00 248 203 162
-9.448904e-01 2.507266e-01 -2.906642e+00 241 221 189
-9.203566e-01 2.541824e-01 -2.909045e+00 245 229 195
9.053121e-01 1.710528e-01 -2.823486e+00 225 194 163
8.881474e-01 1.739219e-01 -2.829641e+00 255 246 213
9.808986e-01 1.765515e-01 -2.817421e+00 253 247 225
1.371176e+00 2.064512e-01 -2.728115e+00 183 144 103
-1.341184e+00 2.658678e-01 -2.992126e+00 255 217 168
-2.733143e-01 2.792943e-01 -2.838163e+00 213 190 156
-2.303443e-01 2.962540e-01 -2.848290e+00 201 177 141
-1.098217e+00 3.005568e-01 -2.969412e+00 190 147 96
-1.033090e+00 3.151906e-01 -2.969460e+00 203 169 121
1.172092e+00 2.668592e-01 -2.862412e+00 244 213 184
1.171926e+00 2.805922e-01 -2.878357e+00 223 175 129
-1.450930e+00 3.884841e-01 -3.030941e+00 255 212 171
1.178666e+00 3.027652e-01 -2.902363e+00 225 187 148
-1.339831e+00 -9.927063e-02 -2.952526e+00 22 15 10
-1.497831e+00 5.962750e-03 -2.911799e+00 238 201 175
-1.594899e+00 2.292709e-02 -2.931949e+00 255 235 209
-1.560661e+00 4.514003e-02 -2.919040e+00 220 186 159
-1.445589e+00 5.693099e-02 -2.898943e+00 255 241 218
-1.583013e+00 6.586707e-02 -2.916492e+00 235 194 170
-1.580502e+00 9.023428e-02 -2.914025e+00 174 131 108
-1.580502e+00 9.023428e-02 -2.914025e+00 174 131 108
1.289790e+00 -8.094518e-02 -2.797415e+00 11 8 4
1.287993e+00 6.713354e-03 -2.674141e+00 187 163 150
-1.530255e+00 1.622038e-01 -2.902531e+00 185 134 95
-1.511562e+00 1.653216e-01 -2.902343e+00 219 175 148
1.261007e+00 7.845543e-02 -2.695372e+00 245 213 182
1.227406e+00 4.898752e-02 -2.753761e+00 233 198 169
-1.294881e+00 1.662977e-01 -2.913554e+00 241 194 148
-1.294935e+00 1.661963e-01 -2.913524e+00 241 194 148
-1.131882e+00 1.624580e-01 -2.904982e+00 255 224 183
-1.302965e+00 1.725436e-01 -2.914478e+00 196 149 101
1.247466e+00 9.634320e-02 -2.711899e+00 253 222 194
-1.087102e+00 1.686695e-01 -2.902633e+00 237 212 181
-1.087286e+00 1.679629e-01 -2.903656e+00 237 212 181
1.320128e+00 1.269481e-01 -2.659929e+00 213 191 168
-9.556722e-01 1.741068e-01 -2.890691e+00 222 199 168
-1.007174e+00 1.784185e-01 -2.894777e+00 226 205 178
1.270779e+00 1.231300e-01 -2.699088e+00 172 135 99
1.177945e+00 8.737126e-02 -2.774622e+00 231 213 203
1.198029e+00 9.634960e-02 -2.769678e+00 220 182 161
1.322000e+00 1.480191e-01 -2.672549e+00 255 248 222
1.144214e+00 1.019918e-01 -2.773423e+00 255 237 215
1.217274e+00 1.220468e-01 -2.762742e+00 206 165 133
9.301015e-01 8.067664e-02 -2.872225e+00 255 248 238
-1.219515e+00 2.302665e-01 -2.950792e+00 219 171 122
-1.219515e+00 2.302665e-01 -2.950792e+00 219 171 122
1.284051e+00 1.769912e-01 -2.737486e+00 255 233 194
1.228850e+00 1.638904e-01 -2.775825e+00 227 188 149
-1.298703e+00 2.370342e-01 -2.976069e+00 249 202 149
1.279715e+00 1.753748e-01 -2.755674e+00 169 130 91
8.932879e-01 1.641590e-01 -2.826366e+00 224 194 160
1.315870e+00 1.909634e-01 -2.730634e+00 207 170 128
1.315870e+00 1.909634e-01 -2.730634e+00 207 170 128
-1.972624e-04 2.479032e-01 -2.818836e+00 238 215 173
-3.845513e-01 2.618795e-01 -2.843114e+00 219 202 172
8.589942e-01 1.791458e-01 -2.832555e+00 230 207 167
-3.338094e-01 2.702926e-01 -2.839566e+00 224 203 172
-9.201565e-01 2.746263e-01 -2.919567e+00 242 223 193
-2.669811e-02 2.687192e-01 -2.824947e+00 250 228 191
-1.074059e-01 2.741108e-01 -2.827681e+00 250 228 191
-1.284929e+00 2.720829e-01 -2.986946e+00 255 222 170
-2.763350e-02 2.773168e-01 -2.828502e+00 219 196 164
1.350048e+00 2.234167e-01 -2.785582e+00 241 207 170
1.295554e+00 2.186896e-01 -2.803534e+00 254 218 176
1.112701e+00 2.200037e-01 -2.843321e+00 255 235 200
-1.286388e+00 3.130054e-01 -3.008241e+00 119 70 29
-1.286353e+00 3.129961e-01 -3.008260e+00 119 70 29
1.119980e+00 2.341807e-01 -2.863458e+00 142 99 57
1.118990e+00 2.350335e-01 -2.862067e+00 142 99 57
-9.245603e-01 3.224120e-01 -2.968780e+00 239 216 184
8.092695e-01 2.557624e-01 -2.903078e+00 252 234 200
-1.369003e+00 3.696309e-01 -3.030040e+00 224 186 147
1.116381e+00 3.197226e-01 -2.966017e+00 255 226 180
1.087395e+00 3.197660e-01 -2.997620e+00 247 218 186
-1.547863e+00 -2.874301e-02 -2.938184e+00 198 163 143
-1.375164e+00 -1.925557e-02 -2.918919e+00 169 138 120
-1.430347e+00 1.417544e-02 -2.900234e+00 241 206 184
-1.554078e+00 2.529807e-02 -2.923044e+00 115 76 57
-1.427355e+00 3.657692e-02 -2.898324e+00 209 175 150
-1.548279e+00 3.685117e-02 -2.917522e+00 255 242 220
1.287804e+00 -3.860879e-02 -2.707547e+00 215 198 188
-1.408465e+00 1.179763e-01 -2.887401e+00 255 228 194
-1.251892e+00 1.102269e-01 -2.913582e+00 255 237 211
1.257055e+00 4.360658e-02 -2.699437e+00 243 209 175
1.257151e+00 5.336677e-02 -2.699864e+00 209 173 135
1.273905e+00 6.676185e-02 -2.678748e+00 205 174 144
1.240092e+00 4.182461e-02 -2.721619e+00 236 206 180
-1.195703e+00 1.251977e-01 -2.913469e+00 252 229 207
1.267394e+00 7.532355e-02 -2.685333e+00 229 195 160
1.304578e+00 9.809168e-02 -2.656101e+00 255 250 234
-1.462029e+00 1.675648e-01 -2.919585e+00 126 81 40
-1.558135e+00 1.774836e-01 -2.917954e+00 203 155 115
-1.417252e+00 1.752757e-01 -2.921914e+00 254 209 157
9.288731e-01 2.421813e-02 -2.871523e+00 255 241 221
-1.088323e+00 1.776646e-01 -2.902938e+00 255 237 201
-1.276091e+00 1.829169e-01 -2.923851e+00 245 197 149
-1.171696e+00 1.860913e-01 -2.908383e+00 255 207 164
-7.278332e-01 1.793606e-01 -2.870740e+00 252 236 211
-9.710880e-01 1.864279e-01 -2.892508e+00 255 246 208
-9.471920e-01 1.933214e-01 -2.889763e+00 239 223 190
1.259545e+00 1.349996e-01 -2.717913e+00 227 189 150
1.195964e+00 1.095584e-01 -2.770930e+00 255 240 219
1.195964e+00 1.095584e-01 -2.770930e+00 255 240 219
-1.153821e+00 2.086530e-01 -2.923784e+00 211 163 117
-1.391712e+00 2.055694e-01 -2.965148e+00 145 94 47
8.757283e-01 7.926241e-02 -2.885977e+00 255 231 204
8.620968e-01 8.465118e-02 -2.886585e+00 245 229 213
-1.164485e+00 2.170658e-01 -2.928965e+00 216 168 119
-1.316191e+00 2.125759e-01 -2.959072e+00 255 212 157
1.009980e+00 1.157922e-01 -2.830297e+00 222 211 209
-6.889112e-01 2.266835e-01 -2.863085e+00 255 240 210
-1.278940e+00 2.183229e-01 -2.954972e+00 250 200 147
7.188066e-01 1.056691e-01 -2.892423e+00 194 190 187
-1.333394e+00 2.221817e-01 -2.962381e+00 245 195 140
1.265648e+00 1.617226e-01 -2.734607e+00 255 231 193
9.855742e-01 1.289141e-01 -2.828283e+00 250 237 229
-3.551775e-01 2.290030e-01 -2.831327e+00 255 243 211
1.237858e+00 1.523193e-01 -2.766172e+00 208 168 132
1.253588e+00 1.594817e-01 -2.756563e+00 255 228 190
9.763609e-01 1.369258e-01 -2.829361e+00 228 213 208
1.051192e+00 1.455612e-01 -2.813941e+00 228 190 154
-2.521875e-01 2.349945e-01 -2.824944e+00 246 226 191
-4.589008e-01 2.531708e-01 -2.846034e+00 254 235 205
-1.426665e+00 2.495937e-01 -2.982760e+00 180 130 88
1.325402e+00 1.969503e-01 -2.738864e+00 217 182 144
1.325402e+00 1.969503e-01 -2.738864e+00 217 182 144
3.531028e-01 2.179315e-01 -2.828251e+00 248 232 198
-1.189065e+00 2.570586e-01 -2.961783e+00 203 157 105
-1.140461e-01 2.577910e-01 -2.824711e+00 239 215 177
-3.035905e-01 2.665778e-01 -2.833361e+00 255 241 209
9.342302e-01 1.811726e-01 -2.827955e+00 241 217 179
1.292988e+00 1.936695e-01 -2.766082e+00 203 164 121
1.292988e+00 1.936695e-01 -2.766082e+00 203 164 121
-4.433908e-01 2.724918e-01 -2.850472e+00 250 233 203
1.054862e+00 1.852178e-01 -2.822778e+00 228 202 175
-2.414149e-01 2.739043e-01 -2.831088e+00 248 226 189
-4.221388e-01 2.783336e-01 -2.850322e+00 250 232 201
-4.221388e-01 2.783336e-01 -2.850322e+00 250 232 201
1.004112e+00 1.916577e-01 -2.830144e+00 255 222 184
-8.784248e-01 2.794972e-01 -2.913397e+00 254 239 203
1.135226e+00 1.871095e-01 -2.827768e+00 212 178 141
1.135226e+00 1.871095e-01 -2.827768e+00 212 178 141
-4.491595e-01 2.860782e-01 -2.858350e+00 255 247 217
1.128563e+00 1.911701e-01 -2.830736e+00 255 248 218
-1.320054e+00 2.728783e-01 -2.998427e+00 255 213 163
-1.099784e+00 2.801321e-01 -2.957945e+00 255 222 173
-4.644921e-01 2.899444e-01 -2.863378e+00 255 239 207
1.278589e+00 2.066492e-01 -2.794536e+00 252 210 168
9.076434e-01 2.012846e-01 -2.854207e+00 255 238 198
1.087634e+00 1.986438e-01 -2.837944e+00 241 211 174
9.814117e-01 2.035274e-01 -2.844581e+00 204 169 128
-1.366911e+00 2.841881e-01 -2.998304e+00 245 199 150
1.181879e+00 2.127973e-01 -2.847266e+00 136 97 58
-1.121256e+00 3.023035e-01 -2.974936e+00 232 192 143
-1.372492e+00 3.055345e-01 -3.003985e+00 255 233 191
1.268939e+00 2.271346e-01 -2.825022e+00 222 179 131
-4.386791e-01 3.147103e-01 -2.879982e+00 249 226 192
1.056910e+00 2.201523e-01 -2.867199e+00 255 221 171
-5.767752e-01 3.166236e-01 -2.898673e+00 255 238 197
1.072955e+00 2.265242e-01 -2.870677e+00 230 184 135
1.129961e+00 2.395050e-01 -2.858065e+00 212 160 113
-1.070870e+00 3.216265e-01 -2.997693e+00 198 165 121
1.112627e+00 2.523123e-01 -2.867352e+00 255 224 192
1.136545e+00 2.779451e-01 -2.898975e+00 227 193 155
1.201473e+00 2.932692e-01 -2.873173e+00 184 133 86
1.164699e+00 2.918047e-01 -2.907489e+00 224 184 142
1.057147e+00 3.014274e-01 -2.989101e+00 206 171 129
1.260893e+00 3.332207e-01 -2.902472e+00 255 224 181
1.202393e+00 3.271932e-01 -2.931794e+00 255 222 181
1.262882e+00 3.359518e-01 -2.943547e+00 229 197 159
1.109350e+00 3.230412e-01 -3.002439e+00 252 221 190
-1.417130e+00 -7.545662e-02 -2.921513e+00 181 154 145
-1.482812e+00 -5.426202e-02 -2.922906e+00 255 238 226
-1.373477e+00 -3.443259e-02 -2.923357e+00 174 145 129
-1.445771e+00 -1.452125e-02 -2.905359e+00 255 231 210
-1.368367e+00 -7.393331e-03 -2.917264e+00 245 216 200
-1.478295e+00 3.603460e-02 -2.901485e+00 208 172 146
-1.531874e+00 3.303130e-02 -2.915198e+00 180 144 122
-1.531874e+00 3.303130e-02 -2.915198e+00 180 144 122
-1.473916e+00 4.380798e-02 -2.899565e+00 255 233 209
-1.382324e+00 3.734759e-02 -2.906142e+00 255 224 196
-1.382324e+00 3.734759e-02 -2.906142e+00 255 224 196
-1.566915e+00 5.725988e-02 -2.913257e+00 255 230 203
-1.485515e+00 6.310583e-02 -2.898366e+00 222 199 181
-1.514603e+00 6.576035e-02 -2.902571e+00 255 237 216
-1.590947e+00 6.974516e-02 -2.921317e+00 202 162 135
-1.391366e+00 8.047981e-02 -2.894952e+00 253 220 189
-1.414209e+00 9.613955e-02 -2.894729e+00 209 174 144
-1.324370e+00 8.590445e-02 -2.908369e+00 248 217 189
-1.362888e+00 1.088331e-01 -2.894129e+00 253 214 181
-1.372628e+00 1.198356e-01 -2.891743e+00 200 163 129
-1.212578e+00 9.436564e-02 -2.918886e+00 249 230 213
-1.331409e+00 1.189132e-01 -2.897288e+00 191 155 121
1.256419e+00 3.748450e-02 -2.694486e+00 185 150 112
-1.494271e+00 1.597920e-01 -2.900050e+00 231 193 151
-1.212619e+00 1.290635e-01 -2.912156e+00 255 235 199
1.264178e+00 6.784463e-02 -2.689918e+00 191 158 125
-1.354950e+00 1.543475e-01 -2.901788e+00 255 219 173
-1.354950e+00 1.543475e-01 -2.901788e+00 255 219 173
-1.224801e+00 1.439999e-01 -2.912750e+00 201 159 117
-1.343561e+00 1.668866e-01 -2.908769e+00 252 206 157
-1.230249e+00 1.579859e-01 -2.909224e+00 255 213 168
-1.092013e+00 1.533664e-01 -2.904985e+00 239 215 181
1.276582e+00 1.061688e-01 -2.677139e+00 255 233 202
-1.454876e+00 1.750852e-01 -2.921076e+00 237 193 148
-1.105804e+00 1.573150e-01 -2.905751e+00 255 238 207
1.322859e+00 1.254906e-01 -2.654919e+00 255 251 233
1.214928e+00 6.611063e-02 -2.762945e+00 255 243 237
1.222080e+00 7.921898e-02 -2.747624e+00 247 211 184
-9.142061e-01 1.648370e-01 -2.886372e+00 255 243 218
-1.485074e+00 1.908468e-01 -2.921362e+00 255 221 184
1.214698e+00 7.887465e-02 -2.758157e+00 226 198 178
-1.196904e+00 1.744245e-01 -2.911783e+00 247 202 158
-1.356268e+00 1.804646e-01 -2.924859e+00 235 185 132
9.296815e-01 3.547828e-02 -2.866829e+00 163 130 104
1.240810e+00 9.801174e-02 -2.729134e+00 115 79 45
1.230912e+00 8.984335e-02 -2.742168e+00 255 227 193
9.499537e-01 4.026490e-02 -2.866570e+00 255 250 220
-1.236331e+00 1.846502e-01 -2.915077e+00 211 164 118
-1.180494e+00 1.865871e-01 -2.912365e+00 255 225 181
-9.999128e-01 1.869311e-01 -2.894828e+00 253 227 190
-9.947779e-01 1.903044e-01 -2.894719e+00 255 232 193
-1.417925e+00 1.931726e-01 -2.946118e+00 225 179 130
-1.160248e+00 1.950829e-01 -2.915406e+00 251 204 158
-1.160288e+00 1.951467e-01 -2.915393e+00 251 204 158
-1.361294e+00 1.951356e-01 -2.946807e+00 180 129 80
1.299822e+00 1.497365e-01 -2.686429e+00 229 200 168
8.775815e-01 6.685047e-02 -2.879926e+00 255 249 208
-1.278811e+00 1.993124e-01 -2.940828e+00 120 71 28
-1.376335e+00 1.992566e-01 -2.954010e+00 209 158 105
-1.376335e+00 1.992566e-01 -2.954010e+00 209 158 105
-1.398811e+00 2.001300e-01 -2.956519e+00 188 139 99
-1.208132e+00 2.041261e-01 -2.927151e+00 255 211 163
-8.805907e-01 2.057081e-01 -2.883401e+00 255 248 214
-1.437215e+00 2.048447e-01 -2.968670e+00 223 175 127
-1.448305e+00 2.096824e-01 -2.964020e+00 143 95 50
-1.429712e+00 2.058488e-01 -2.971754e+00 211 165 113
1.345581e+00 1.785496e-01 -2.686379e+00 255 230 196
1.110053e+00 1.345777e-01 -2.799270e+00 255 241 217
-1.404125e+00 2.202430e-01 -2.987408e+00 228 177 125
-5.063807e-01 2.378237e-01 -2.846820e+00 255 239 206
-1.262266e+00 2.316843e-01 -2.961273e+00 255 223 170
-1.338129e+00 2.273936e-01 -2.979651e+00 253 204 148
-1.117578e+00 2.391733e-01 -2.934607e+00 255 235 188
-1.002139e+00 2.419453e-01 -2.917170e+00 236 215 172
1.349188e+00 1.935564e-01 -2.706133e+00 255 225 187
-1.161617e+00 2.421044e-01 -2.946173e+00 255 224 173
-1.242996e+00 2.410006e-01 -2.964332e+00 216 169 117
-1.404238e+00 2.358233e-01 -2.992529e+00 222 173 133
1.362653e+00 1.991787e-01 -2.708721e+00 254 222 187
1.353792e+00 1.976219e-01 -2.714285e+00 255 237 197
-5.197785e-01 2.565647e-01 -2.851495e+00 236 220 184
-1.221876e+00 2.556133e-01 -2.970674e+00 254 206 157
-1.326222e+00 2.564060e-01 -2.991822e+00 255 224 173
8.649171e-01 1.851533e-01 -2.837617e+00 255 244 205
-5.106371e-01 2.732942e-01 -2.862261e+00 230 214 180
7.278590e-03 2.642768e-01 -2.820321e+00 250 226 188
-3.280961e-01 2.752293e-01 -2.843264e+00 244 225 193
-8.953553e-01 2.765161e-01 -2.914484e+00 255 247 215
-2.206356e-01 2.779420e-01 -2.835685e+00 214 192 153
-3.932586e-01 2.909839e-01 -2.857314e+00 227 211 178
-1.405961e+00 2.901188e-01 -2.995970e+00 246 202 163
6.509956e-02 2.780960e-01 -2.833121e+00 221 201 166
-2.524805e-02 2.843870e-01 -2.834660e+00 248 228 195
-4.296744e-01 2.977785e-01 -2.863048e+00 254 235 202
-1.239588e+00 2.874869e-01 -2.986013e+00 252 204 155
-1.101787e+00 2.920207e-01 -2.964566e+00 255 224 174
9.967165e-01 2.075925e-01 -2.864535e+00 255 247 204
1.041564e+00 2.141369e-01 -2.853042e+00 255 221 173
1.184083e+00 2.197884e-01 -2.844962e+00 255 248 209
-8.794316e-01 3.119198e-01 -2.943829e+00 235 214 181
-5.364701e-01 3.189166e-01 -2.897201e+00 255 237 201
-3.262181e-01 3.182571e-01 -2.880214e+00 210 190 153
1.178780e+00 2.386568e-01 -2.847739e+00 255 237 210
-1.253293e+00 3.229770e-01 -3.009036e+00 184 138 88
-1.253293e+00 3.229770e-01 -3.009036e+00 184 138 88
-1.232314e+00 3.223555e-01 -3.009264e+00 237 191 142
1.124578e+00 2.445823e-01 -2.861079e+00 255 235 200
1.147398e+00 2.621307e-01 -2.861217e+00 255 233 207
1.112583e+00 2.630878e-01 -2.886908e+00 189 153 114
1.138922e+00 2.784932e-01 -2.885038e+00 255 233 197
-1.360517e+00 3.654272e-01 -3.031662e+00 215 173 132
-1.456686e+00 3.794672e-01 -3.026973e+00 189 138 95
1.196278e+00 2.892255e-01 -2.876016e+00 238 190 141
1.171275e+00 2.868857e-01 -2.888447e+00 225 181 135
-1.372634e+00 3.803926e-01 -3.042204e+00 189 153 117
-1.389561e+00 3.910748e-01 -3.048159e+00 186 152 118
1.211043e+00 3.145500e-01 -2.882392e+00 252 210 167
1.218093e+00 3.219143e-01 -2.880769e+00 255 229 186
1.092157e+00 3.080213e-01 -2.974931e+00 255 237 194
-1.425686e+00 -5.971787e-02 -2.917199e+00 144 119 115
-1.384894e+00 -3.788663e-02 -2.919161e+00 145 113 97
-1.390987e+00 -7.411221e-03 -2.911968e+00 209 180 164
-1.485220e+00 2.306500e-03 -2.910363e+00 194 158 134
-1.533657e+00 3.923514e-02 -2.913542e+00 245 211 189
-1.344429e+00 2.098229e-02 -2.916744e+00 144 108 83
-1.320243e+00 8.021453e-03 -2.933241e+00 243 213 189
-1.357076e+00 2.694188e-02 -2.910308e+00 177 140 113
-1.300716e+00 7.859521e-03 -2.944166e+00 248 220 197
-1.590408e+00 5.740423e-02 -2.921277e+00 188 149 120
-1.472191e+00 6.109205e-02 -2.900946e+00 148 120 97
-1.472191e+00 6.109205e-02 -2.900946e+00 148 120 97
-1.360646e+00 5.021821e-02 -2.906607e+00 234 197 168
-1.527520e+00 6.540667e-02 -2.906782e+00 169 135 108
-1.499380e+00 6.672126e-02 -2.902387e+00 255 234 216
-1.329122e+00 4.587046e-02 -2.914131e+00 150 114 82
-1.590426e+00 6.392994e-02 -2.921220e+00 235 195 169
-1.583230e+00 7.557821e-02 -2.916606e+00 199 159 133
-1.611492e+00 8.027260e-02 -2.927487e+00 151 103 62
-1.300095e+00 6.078507e-02 -2.916503e+00 176 142 114
-1.300095e+00 6.078507e-02 -2.916503e+00 176 142 114
-1.317711e+00 6.941946e-02 -2.912725e+00 183 149 121
-1.404521e+00 1.006925e-01 -2.890320e+00 196 159 130
1.293085e+00 4.498114e-02 -2.657597e+00 255 241 233
-1.533197e+00 1.273257e-01 -2.901696e+00 121 89 73
-1.239820e+00 9.867448e-02 -2.918260e+00 255 239 216
1.254226e+00 3.492467e-02 -2.701211e+00 228 201 173
-1.568259e+00 1.493062e-01 -2.908529e+00 210 174 150
-1.199631e+00 1.166917e-01 -2.914303e+00 208 187 168
-1.277446e+00 1.334962e-01 -2.907194e+00 255 218 179
1.241984e+00 5.691634e-02 -2.720185e+00 229 196 165
-1.516426e+00 1.710724e-01 -2.902228e+00 130 82 46
1.311685e+00 1.029606e-01 -2.653787e+00 244 228 212
-1.540606e+00 1.764214e-01 -2.908859e+00 198 148 111
1.246927e+00 7.656240e-02 -2.713757e+00 199 166 135
1.245892e+00 7.740141e-02 -2.712455e+00 199 166 135
-1.100244e+00 1.480000e-01 -2.905000e+00 255 244 213
-1.419799e+00 1.689828e-01 -2.914002e+00 255 243 198
-1.513598e+00 1.805195e-01 -2.909699e+00 159 113 77
-1.242198e+00 1.591193e-01 -2.910158e+00 249 206 163
-1.330154e+00 1.659150e-01 -2.912804e+00 165 118 74
-1.094132e+00 1.593627e-01 -2.903532e+00 255 245 213
-1.093899e+00 1.602093e-01 -2.902149e+00 255 245 213
1.267592e+00 1.053621e-01 -2.692268e+00 255 237 207
-1.388397e+00 1.770434e-01 -2.922362e+00 194 142 92
-1.388397e+00 1.770434e-01 -2.922362e+00 194 142 92
-1.421551e+00 1.792325e-01 -2.928615e+00 228 180 135
1.309179e+00 1.261181e-01 -2.665433e+00 255 249 226
1.218845e+00 8.109732e-02 -2.753689e+00 255 247 220
1.225206e+00 8.938948e-02 -2.748749e+00 255 247 213
-1.149455e+00 1.816422e-01 -2.906676e+00 255 233 186
-1.415252e+00 1.822449e-01 -2.940482e+00 118 77 43
-1.492980e+00 1.954350e-01 -2.930432e+00 253 215 179
-1.478513e+00 1.940943e-01 -2.933552e+00 101 61 25
-1.123823e+00 1.836514e-01 -2.906423e+00 255 242 196
-1.040728e+00 1.836801e-01 -2.899310e+00 255 230 195
9.002914e-01 5.327164e-02 -2.873954e+00 255 223 180
-7.719147e-01 1.858079e-01 -2.872422e+00 255 242 216
-1.217935e+00 1.981174e-01 -2.922124e+00 255 215 171
-1.155970e+00 1.978217e-01 -2.917868e+00 205 158 110
-1.233919e+00 1.986609e-01 -2.926856e+00 252 204 157
-1.233935e+00 1.986264e-01 -2.926848e+00 252 204 157
-1.297077e+00 1.958140e-01 -2.939327e+00 180 133 81
1.222932e+00 1.220635e-01 -2.754669e+00 250 214 177
-1.281198e+00 2.054478e-01 -2.939711e+00 246 199 147
8.776446e-01 7.205351e-02 -2.883241e+00 206 174 132
-1.358564e+00 2.055347e-01 -2.952965e+00 177 129 75
-1.428465e+00 2.012527e-01 -2.969111e+00 121 74 28
-1.368173e+00 2.044842e-01 -2.958241e+00 222 172 119
8.686312e-01 7.499633e-02 -2.888196e+00 203 166 121
-6.439992e-01 2.172324e-01 -2.858391e+00 218 199 169
-1.336665e+00 2.104588e-01 -2.960387e+00 227 177 124
-1.439156e+00 2.100568e-01 -2.976678e+00 130 82 36
-1.304734e+00 2.156998e-01 -2.956922e+00 249 202 146
1.184048e+00 1.369120e-01 -2.772275e+00 255 232 206
1.232275e+00 1.438235e-01 -2.761245e+00 225 186 146
-1.146809e+00 2.250556e-01 -2.935257e+00 255 243 198
1.228727e+00 1.515348e-01 -2.767611e+00 187 147 111
-7.817485e-01 2.371803e-01 -2.878804e+00 224 208 174
-1.398710e+00 2.227554e-01 -2.988107e+00 83 39 3
-5.601922e-01 2.385587e-01 -2.854218e+00 236 217 184
1.137583e+00 1.463757e-01 -2.797119e+00 239 214 184
1.195683e+00 1.546442e-01 -2.779265e+00 232 197 158
-1.376848e+00 2.319314e-01 -2.988760e+00 254 208 156
1.242257e+00 1.654754e-01 -2.768982e+00 255 224 185
1.329183e+00 1.913205e-01 -2.718982e+00 255 222 185
1.089849e+00 1.556877e-01 -2.810684e+00 223 215 192
1.089849e+00 1.556877e-01 -2.810684e+00 223 215 192
-9.005726e-01 2.561262e-01 -2.906639e+00 234 206 166
-1.300284e+00 2.454331e-01 -2.979868e+00 161 111 58
-1.300284e+00 2.454331e-01 -2.979868e+00 161 111 58
1.147235e+00 1.685439e-01 -2.807772e+00 255 249 214
1.023936e+00 1.779880e-01 -2.820951e+00 161 116 77
1.023728e+00 1.781944e-01 -2.820650e+00 161 116 77
-8.014244e-01 2.676043e-01 -2.896077e+00 235 222 187
1.070760e+00 1.797179e-01 -2.819044e+00 255 252 229
-1.045686e+00 2.671487e-01 -2.935502e+00 255 246 205
1.023141e+00 1.850239e-01 -2.817669e+00 255 249 213
-1.101622e+00 2.655999e-01 -2.947847e+00 255 230 181
-1.246625e+00 2.666358e-01 -2.976643e+00 196 148 99
9.698104e-01 1.944773e-01 -2.832943e+00 151 116 74
-1.368127e+00 2.711281e-01 -2.996244e+00 198 150 104
1.172844e+00 1.877701e-01 -2.824595e+00 156 124 86
-1.197015e+00 2.861936e-01 -2.976737e+00 255 224 175
-1.290431e+00 2.856524e-01 -2.993367e+00 210 163 111
-1.332220e+00 2.905081e-01 -3.000807e+00 254 210 164
1.117359e+00 2.102001e-01 -2.837954e+00 255 245 214
