ply
format ascii 1.0
element face 0
property list uchar int vertex_indices
element vertex 907
property float x
property float y
property float z
property uchar diffuse_red
property uchar diffuse_green
property uchar diffuse_blue
end_header
-1.253980e+00 2.601769e-01 -2.981329e+00 231 187 140
-1.189089e+00 2.686792e-01 -2.972223e+00 247 204 153
1.081646e+00 3.146812e-01 -2.996124e+00 253 220 188
1.079716e+00 3.151944e-01 -3.017245e+00 228 197 167
-1.063283e+00 2.958734e-01 -2.968370e+00 232 198 153
-1.355529e+00 2.761209e-01 -3.001419e+00 214 166 120
-1.094718e+00 2.989804e-01 -2.970606e+00 210 172 125
-1.094671e+00 2.987918e-01 -2.970764e+00 210 172 125
1.195383e+00 3.378682e-01 -3.009101e+00 209 185 159
-1.250722e+00 2.881441e-01 -2.992636e+00 218 170 121
-1.089231e+00 3.151582e-01 -2.993879e+00 207 173 128
1.237793e+00 3.502377e-01 -3.044540e+00 28 22 18
-1.375433e+00 3.388200e-01 -3.018024e+00 199 156 122
-1.285613e+00 3.398988e-01 -3.039264e+00 151 114 69
-1.285426e+00 3.421896e-01 -3.040619e+00 187 148 105
-1.419827e+00 3.721539e-01 -3.022034e+00 133 85 47
-1.400175e+00 3.764760e-01 -3.031534e+00 110 60 27
1.327130e+00 1.579408e-01 -2.679450e+00 255 244 217
1.301116e+00 1.467236e-01 -2.689862e+00 236 200 166
-2.426343e-01 2.712793e-01 -2.836472e+00 248 228 193
1.228447e+00 1.494650e-01 -2.768956e+00 191 147 108
-3.042657e-01 2.639056e-01 -2.836989e+00 255 248 217
1.264870e+00 1.067377e-01 -2.699540e+00 240 206 169
1.233787e+00 1.330412e-01 -2.759233e+00 255 216 177
1.168582e+00 1.381829e-01 -2.782291e+00 255 247 217
1.247254e+00 1.497016e-01 -2.758414e+00 243 201 161
-1.301986e+00 2.944237e-01 -3.000714e+00 181 131 80
-1.334143e+00 -8.030669e-02 -2.960603e+00 166 129 92
1.202469e+00 1.396581e-01 -2.775471e+00 233 195 159
9.060985e-01 1.632862e-01 -2.824727e+00 251 219 182
-6.854484e-01 2.239449e-01 -2.864037e+00 230 208 171
-5.938313e-01 2.355036e-01 -2.855757e+00 235 213 176
-5.411781e-01 2.592126e-01 -2.857736e+00 224 204 169
-1.196972e+00 2.873885e-01 -2.981524e+00 212 165 113
1.177496e+00 1.274456e-01 -2.774339e+00 249 213 180
5.064481e-01 2.386747e-01 -2.834065e+00 242 231 203
-4.834334e-01 2.497493e-01 -2.848662e+00 228 209 177
-1.435810e+00 2.370049e-01 -2.982451e+00 230 180 129
-1.542958e+00 4.125914e-02 -2.916917e+00 199 160 121
-1.453412e+00 1.076348e-01 -2.892935e+00 255 225 175
1.243481e+00 3.886681e-02 -2.721575e+00 254 220 182
1.313024e+00 2.250235e-01 -2.779807e+00 252 214 177
-1.448822e+00 1.079754e-02 -2.909605e+00 212 178 162
-1.533696e+00 2.219903e-01 -3.035465e+00 229 186 153
-1.514976e+00 1.396837e-01 -2.898787e+00 255 248 232
-9.638916e-01 1.903050e-01 -2.890594e+00 255 247 225
-9.322407e-01 2.361652e-01 -2.905266e+00 255 249 220
-1.310425e+00 -7.625833e-02 -2.982750e+00 11 11 10
-1.295828e+00 -3.241782e-02 -2.963159e+00 233 213 208
-1.346239e+00 1.747556e-02 -2.925500e+00 183 149 129
-1.346239e+00 1.747556e-02 -2.925500e+00 183 149 129
-1.505832e+00 7.691562e-02 -2.901876e+00 255 252 237
-1.343806e+00 1.203298e-01 -2.898082e+00 248 216 193
-1.278282e+00 1.334861e-01 -2.913375e+00 237 207 183
-1.613602e+00 1.458161e-01 -2.953255e+00 19 20 21
-1.115110e+00 2.032484e-01 -2.918818e+00 235 200 160
-3.836969e-01 2.835429e-01 -2.852587e+00 255 251 221
-2.825024e-01 3.242856e-01 -2.885831e+00 200 176 140
-1.425774e+00 -4.420809e-02 -2.914941e+00 255 249 246
-1.500671e+00 3.791639e-02 -2.911126e+00 152 112 85
-1.357862e+00 3.393839e-02 -2.914677e+00 255 228 207
-1.531863e+00 6.378226e-02 -2.908630e+00 200 164 140
-1.356568e+00 6.167545e-02 -2.904544e+00 190 159 139
-1.410587e+00 9.910046e-02 -2.892379e+00 215 184 163
-1.549217e+00 1.412332e-01 -2.908209e+00 244 217 197
-1.183003e+00 1.383232e-01 -2.911306e+00 250 236 227
-1.183003e+00 1.383232e-01 -2.911306e+00 250 236 227
-1.458352e+00 1.975965e-01 -2.958787e+00 130 85 44
-9.217538e-01 2.216047e-01 -2.896649e+00 242 224 194
1.325689e+00 1.898818e-01 -2.727598e+00 254 217 182
-4.564241e-01 2.657779e-01 -2.850214e+00 239 222 193
-7.585522e-01 2.772541e-01 -2.896980e+00 243 227 193
1.335485e+00 2.032297e-01 -2.750782e+00 208 170 131
-1.032003e+00 3.048204e-01 -2.964765e+00 254 229 197
-1.417129e+00 3.295217e-01 -3.002319e+00 213 173 148
1.178259e+00 3.306637e-01 -2.949431e+00 229 195 157
-1.502075e+00 2.104035e-03 -2.918122e+00 237 200 179
-1.320252e+00 -3.001693e-02 -2.957087e+00 172 154 150
-1.426081e+00 4.506637e-02 -2.901346e+00 255 232 211
-1.282839e+00 -4.304964e-03 -2.966422e+00 173 156 152
-1.340188e+00 3.406777e-02 -2.918993e+00 198 162 140
-1.596598e+00 1.416065e-01 -2.927324e+00 242 197 166
-1.382025e+00 1.556296e-01 -2.906499e+00 243 200 157
-1.134148e+00 1.596596e-01 -2.908699e+00 255 235 212
-1.007901e+00 1.795311e-01 -2.891288e+00 232 215 200
-1.178414e+00 2.613415e-01 -2.962333e+00 255 214 167
1.280606e+00 2.048687e-01 -2.798968e+00 247 204 159
-2.110488e-01 2.925117e-01 -2.846182e+00 220 195 157
-9.681174e-02 2.967671e-01 -2.847263e+00 255 238 204
-1.289073e+00 3.114688e-01 -3.009880e+00 121 79 39
-2.832330e-02 3.260930e-01 -2.866323e+00 216 194 157
1.221162e+00 3.417225e-01 -3.056597e+00 197 182 167
-1.387894e+00 -4.079583e-02 -2.919802e+00 160 135 130
-1.569865e+00 1.837543e-02 -2.929193e+00 244 215 193
-1.290719e+00 -3.322519e-02 -2.982423e+00 17 12 6
-1.598480e+00 1.797107e-02 -2.937285e+00 255 235 212
-1.290374e+00 -2.315989e-02 -2.977504e+00 253 237 232
-1.566081e+00 4.078434e-02 -2.924429e+00 216 184 159
-1.271967e+00 4.137816e-03 -2.965583e+00 173 159 158
-1.380353e+00 7.125603e-02 -2.900797e+00 193 166 144
-1.616175e+00 8.491729e-02 -2.934573e+00 255 215 176
-1.354472e+00 1.349770e-01 -2.897971e+00 242 208 181
1.272608e+00 7.822577e-02 -2.685213e+00 185 147 110
-1.158616e+00 1.586653e-01 -2.908193e+00 255 237 218
-1.297555e+00 1.636947e-01 -2.914395e+00 237 192 151
-1.156920e+00 1.658905e-01 -2.910806e+00 214 176 143
-8.039283e-01 1.634939e-01 -2.881259e+00 238 225 216
-1.153922e+00 1.768433e-01 -2.910204e+00 255 231 196
-1.135397e+00 1.745784e-01 -2.915103e+00 255 234 197
-1.147560e+00 1.792952e-01 -2.909131e+00 255 229 192
-7.855838e-01 2.345052e-01 -2.879456e+00 232 222 188
-3.743616e-01 2.710310e-01 -2.845663e+00 230 213 185
1.238024e+00 1.867115e-01 -2.808865e+00 229 191 147
1.243038e+00 1.910844e-01 -2.813375e+00 255 228 184
-8.215968e-02 3.063127e-01 -2.851069e+00 253 230 196
1.076154e+00 2.185340e-01 -2.860707e+00 215 171 124
-1.380878e+00 -3.257675e-02 -2.923418e+00 223 200 196
-1.567295e+00 -4.615321e-04 -2.935007e+00 255 236 217
-1.420672e+00 1.563014e-02 -2.908886e+00 171 138 121
-1.589776e+00 1.692047e-02 -2.935233e+00 119 83 59
-1.552417e+00 3.246268e-02 -2.923039e+00 255 231 208
-1.351689e+00 2.295636e-02 -2.918254e+00 161 129 106
-1.416038e+00 3.553820e-02 -2.904895e+00 255 232 208
-1.400421e+00 4.539581e-02 -2.904516e+00 255 231 210
-1.539222e+00 6.746222e-02 -2.909124e+00 209 175 150
-1.584958e+00 6.515283e-02 -2.919254e+00 235 199 173
-1.570409e+00 8.212097e-02 -2.914372e+00 255 234 210
-1.355800e+00 9.223760e-02 -2.900251e+00 225 194 173
-1.227848e+00 7.317876e-02 -2.931368e+00 246 239 247
-1.411482e+00 1.148746e-01 -2.891949e+00 255 233 207
-1.568954e+00 1.231656e-01 -2.913168e+00 251 218 198
-1.568954e+00 1.231656e-01 -2.913168e+00 251 218 198
-1.216645e+00 1.047359e-01 -2.921649e+00 255 246 247
1.406370e+00 8.438298e-02 -2.640225e+00 248 217 200
-1.156417e+00 1.443850e-01 -2.909956e+00 254 239 234
-1.002297e+00 1.848135e-01 -2.897287e+00 255 240 215
-1.162993e+00 1.920828e-01 -2.918174e+00 253 210 171
-1.167423e+00 1.984850e-01 -2.920339e+00 213 169 130
-1.279531e+00 2.101137e-01 -2.952252e+00 212 164 116
-1.244391e+00 2.388901e-01 -2.966016e+00 217 170 126
-4.458752e-01 2.607801e-01 -2.849894e+00 255 246 216
-4.669918e-01 2.643721e-01 -2.851339e+00 255 247 219
-4.722041e-01 2.679208e-01 -2.854444e+00 238 221 191
-4.722041e-01 2.679208e-01 -2.854444e+00 238 221 191
-3.308439e-01 2.757292e-01 -2.841181e+00 252 235 207
-4.164144e-01 2.763654e-01 -2.853918e+00 237 220 190
1.285301e+00 1.937156e-01 -2.790187e+00 251 210 166
-1.402324e-01 2.768350e-01 -2.830687e+00 250 227 191
-1.321762e+00 2.866262e-01 -3.000899e+00 185 140 98
6.312568e-02 2.792622e-01 -2.830128e+00 225 205 170
-1.331671e+00 3.266305e-01 -3.012264e+00 194 151 109
1.303023e+00 2.278524e-01 -2.832471e+00 211 172 129
1.225981e+00 2.708195e-01 -2.858648e+00 255 222 174
-1.452059e+00 3.896422e-01 -3.032235e+00 255 216 177
-1.467016e+00 3.981093e-01 -3.050886e+00 108 63 25
1.056945e+00 2.983795e-01 -2.993218e+00 201 167 129
1.056916e+00 2.983555e-01 -2.993130e+00 201 167 129
1.249451e+00 3.462604e-01 -3.026745e+00 211 190 162
-1.450570e+00 -3.545745e-02 -2.913774e+00 164 134 122
-1.388668e+00 -3.372620e-02 -2.918704e+00 243 222 217
-1.337607e+00 -3.960578e-02 -2.949077e+00 255 248 255
-1.562673e+00 4.882512e-03 -2.934567e+00 217 190 171
-1.454712e+00 1.773390e-02 -2.903080e+00 254 221 202
-1.502841e+00 1.622078e-02 -2.913510e+00 180 143 122
-1.503441e+00 1.564108e-02 -2.914335e+00 180 143 122
-1.361455e+00 1.481811e-02 -2.917364e+00 246 216 194
-1.482420e+00 3.252240e-02 -2.907286e+00 210 177 158
-1.371269e+00 2.519840e-02 -2.913554e+00 182 149 130
-1.339824e+00 2.040227e-02 -2.922243e+00 144 114 95
-1.303061e+00 7.029615e-03 -2.945025e+00 238 219 215
-1.543574e+00 4.673701e-02 -2.917587e+00 236 204 183
-1.397301e+00 5.333241e-02 -2.903338e+00 192 164 142
-1.434850e+00 5.993315e-02 -2.900845e+00 255 241 221
-1.331521e+00 6.121794e-02 -2.913735e+00 200 171 150
-1.348348e+00 8.544772e-02 -2.903196e+00 149 118 95
-1.450516e+00 1.004366e-01 -2.893036e+00 165 131 106
-1.405872e+00 9.881174e-02 -2.892160e+00 202 170 148
-1.581615e+00 9.999098e-02 -2.916278e+00 239 205 179
-1.268250e+00 7.895211e-02 -2.920083e+00 234 217 207
-1.543000e+00 1.373467e-01 -2.905167e+00 253 224 204
-1.367227e+00 1.378000e-01 -2.899428e+00 174 137 110
-1.367227e+00 1.378000e-01 -2.899428e+00 174 137 110
1.409788e+00 8.989940e-02 -2.642117e+00 186 159 146
-1.280327e+00 1.301424e-01 -2.911152e+00 255 231 210
-1.291144e+00 1.380550e-01 -2.915380e+00 211 174 147
-1.534134e+00 1.693758e-01 -2.902929e+00 204 156 118
-1.232423e+00 1.412432e-01 -2.918522e+00 209 172 145
-1.205191e+00 1.534766e-01 -2.912741e+00 255 239 212
-1.509474e+00 1.813936e-01 -2.909696e+00 145 101 66
-1.174484e+00 1.738630e-01 -2.910675e+00 198 155 120
-1.107736e+00 1.821276e-01 -2.905666e+00 255 242 211
-7.535837e-01 1.785479e-01 -2.872803e+00 235 223 207
-1.332516e+00 1.873988e-01 -2.936239e+00 238 190 144
-1.284811e+00 1.882276e-01 -2.929070e+00 236 189 145
-1.107461e+00 1.901037e-01 -2.909864e+00 255 246 210
-8.990380e-01 1.893658e-01 -2.883586e+00 234 220 207
1.323918e+00 1.742686e-01 -2.702375e+00 255 228 190
-1.352759e+00 2.208729e-01 -2.979285e+00 244 194 145
-1.029458e+00 2.341290e-01 -2.919130e+00 255 247 214
1.212926e+00 1.573434e-01 -2.786181e+00 255 229 189
-1.310470e+00 2.398605e-01 -2.983092e+00 216 168 120
-9.037424e-01 2.552527e-01 -2.906739e+00 238 212 177
-1.224704e+00 2.546519e-01 -2.972737e+00 249 205 160
1.234908e+00 1.842550e-01 -2.803578e+00 255 225 181
2.697299e-02 2.625997e-01 -2.830423e+00 251 230 193
-4.242076e-01 2.856290e-01 -2.858017e+00 255 240 210
-1.329747e+00 3.018635e-01 -3.003956e+00 254 212 170
-1.237450e+00 3.010342e-01 -2.995506e+00 243 200 155
9.973754e-01 2.060929e-01 -2.866567e+00 255 229 187
-1.276489e+00 3.159806e-01 -3.011639e+00 190 147 104
-1.284794e+00 3.249945e-01 -3.014952e+00 208 163 119
-1.373884e+00 3.491252e-01 -3.022596e+00 216 179 153
1.839711e-01 3.136527e-01 -2.871901e+00 203 182 147
8.637942e-01 2.543274e-01 -2.915577e+00 248 228 195
-1.418458e+00 3.789979e-01 -3.030402e+00 153 104 71
1.067607e+00 2.987246e-01 -2.988218e+00 250 216 171
1.297585e+00 3.182603e-01 -2.914467e+00 255 227 190
1.197426e+00 3.312748e-01 -2.950050e+00 209 176 141
-1.367250e+00 -5.212032e-02 -2.930049e+00 219 199 198
-1.337070e+00 -5.764768e-02 -2.959880e+00 188 171 168
-1.461928e+00 -1.578848e-02 -2.908873e+00 213 182 163
-1.589752e+00 -2.347201e-02 -2.950878e+00 190 160 143
-1.460276e+00 -1.265717e-03 -2.907567e+00 221 188 169
-1.329535e+00 -2.800590e-02 -2.949642e+00 224 210 210
-1.378604e+00 5.258088e-03 -2.914602e+00 255 242 223
-1.586458e+00 5.635782e-03 -2.937398e+00 235 200 180
-1.348543e+00 1.707524e-02 -2.921895e+00 150 119 98
-1.572722e+00 3.300554e-02 -2.924995e+00 252 221 198
-1.544288e+00 4.298911e-02 -2.915699e+00 213 182 160
1.331456e+00 2.251206e-02 -2.649876e+00 189 163 150
-1.322887e+00 5.311118e-02 -2.913997e+00 178 149 125
-1.576011e+00 7.568651e-02 -2.915476e+00 217 184 161
-1.541566e+00 9.116566e-02 -2.913483e+00 198 165 139
-1.423493e+00 9.452878e-02 -2.894306e+00 216 184 159
-1.548544e+00 1.124724e-01 -2.909015e+00 239 211 191
-1.523781e+00 1.474702e-01 -2.900854e+00 213 182 164
-1.288006e+00 1.268151e-01 -2.906470e+00 243 211 188
-1.351266e+00 1.369919e-01 -2.898160e+00 242 207 179
-1.373789e+00 1.408698e-01 -2.898931e+00 194 154 124
-1.278827e+00 1.340791e-01 -2.912739e+00 234 204 180
-1.535674e+00 1.617613e-01 -2.905333e+00 162 113 79
-1.505651e+00 1.650391e-01 -2.904360e+00 196 155 127
-1.430132e+00 1.791016e-01 -2.936517e+00 144 95 52
-1.196446e+00 1.758097e-01 -2.913539e+00 252 209 174
-1.490697e+00 1.917345e-01 -2.931068e+00 215 178 149
-1.216223e+00 1.846174e-01 -2.917630e+00 208 164 127
-1.215017e+00 1.862827e-01 -2.913753e+00 208 164 127
-9.972392e-01 1.812584e-01 -2.897078e+00 196 176 152
-1.453737e+00 1.875647e-01 -2.947649e+00 237 193 150
-1.453737e+00 1.875647e-01 -2.947649e+00 237 193 150
-1.112742e+00 1.841399e-01 -2.911377e+00 218 193 160
-1.117653e+00 1.851969e-01 -2.909491e+00 223 194 162
-1.157942e+00 1.966929e-01 -2.918748e+00 206 163 121
1.249708e+00 1.243312e-01 -2.739928e+00 158 119 88
-1.369628e+00 1.995196e-01 -2.954608e+00 153 103 54
-1.150708e+00 2.027057e-01 -2.922930e+00 244 205 166
-1.216584e+00 2.087592e-01 -2.933295e+00 249 204 163
-1.212405e+00 2.121539e-01 -2.936208e+00 214 169 128
-1.215053e+00 2.147879e-01 -2.939035e+00 255 215 174
-1.295017e+00 2.317812e-01 -2.974696e+00 209 161 113
-1.062439e+00 2.414348e-01 -2.928685e+00 237 211 176
-3.335532e-01 2.400209e-01 -2.832402e+00 233 217 191
1.217436e+00 1.571201e-01 -2.785841e+00 224 182 144
-1.325841e+00 2.414688e-01 -2.987329e+00 255 219 170
-1.406091e+00 2.472291e-01 -2.989557e+00 245 198 168
1.419679e+00 1.929597e-01 -2.712320e+00 131 101 75
-8.900806e-01 2.607701e-01 -2.907259e+00 255 235 198
-1.219835e+00 2.518002e-01 -2.969264e+00 189 145 100
-1.059495e+00 2.622010e-01 -2.939430e+00 215 187 148
1.379195e+00 2.017737e-01 -2.716409e+00 254 216 179
-4.618334e-01 2.657108e-01 -2.852477e+00 233 216 188
1.203591e+00 1.759271e-01 -2.807229e+00 238 205 162
-1.208171e+00 2.686605e-01 -2.973831e+00 252 210 165
-1.329715e+00 2.653127e-01 -2.997170e+00 255 227 185
8.984285e-01 1.912344e-01 -2.849832e+00 255 231 190
-4.147239e-01 2.868407e-01 -2.856445e+00 254 236 206
1.246749e+00 1.913903e-01 -2.808329e+00 209 166 123
-1.208230e+00 2.943598e-01 -2.988057e+00 224 183 139
1.362634e+00 2.164711e-01 -2.771508e+00 242 207 169
-1.328791e+00 2.976434e-01 -3.003399e+00 227 184 141
1.379625e+00 2.193057e-01 -2.772569e+00 217 181 143
-1.310781e+00 3.050158e-01 -3.005804e+00 201 158 113
-2.513463e-01 3.089325e-01 -2.860854e+00 218 194 158
-1.376824e+00 3.179555e-01 -3.013778e+00 163 121 96
7.186406e-01 2.410479e-01 -2.872031e+00 219 196 163
-2.250357e-01 3.148522e-01 -2.865951e+00 243 217 180
1.143600e+00 2.398498e-01 -2.853243e+00 254 220 181
2.486159e-01 3.102876e-01 -2.873414e+00 242 220 183
1.178842e+00 2.669198e-01 -2.865785e+00 243 199 160
-1.432779e+00 3.827447e-01 -3.030438e+00 116 67 31
-1.322693e+00 3.567281e-01 -3.069934e+00 90 61 31
1.204014e+00 3.036221e-01 -2.880438e+00 255 211 162
-1.363605e+00 -9.358477e-02 -2.947032e+00 220 195 183
-1.320042e+00 -6.041116e-02 -2.969117e+00 176 156 148
-1.547661e+00 -1.520797e-02 -2.934030e+00 216 184 165
-1.452074e+00 2.221696e-02 -2.903642e+00 199 164 145
-1.385823e+00 2.848297e-02 -2.911032e+00 192 164 143
-1.394871e+00 4.458300e-02 -2.904932e+00 239 208 188
-1.349521e+00 3.687764e-02 -2.914247e+00 252 224 203
-1.336191e+00 7.707685e-02 -2.908058e+00 191 160 141
-1.559564e+00 1.119495e-01 -2.912521e+00 232 204 183
-1.314445e+00 1.050643e-01 -2.907982e+00 246 220 203
-1.324293e+00 1.192685e-01 -2.905500e+00 254 222 201
-1.590203e+00 1.300627e-01 -2.922037e+00 221 182 151
-1.536413e+00 1.457764e-01 -2.903989e+00 221 191 172
-1.312676e+00 1.306065e-01 -2.907091e+00 248 212 186
-1.522490e+00 1.504259e-01 -2.903306e+00 244 211 192
-1.339164e+00 1.511408e-01 -2.905390e+00 252 213 180
-1.522426e+00 1.738125e-01 -2.908171e+00 198 150 114
-1.071711e+00 1.584255e-01 -2.902755e+00 216 200 184
-7.915583e-01 1.602507e-01 -2.884703e+00 254 242 230
-1.465545e+00 1.854824e-01 -2.938668e+00 168 130 94
1.257049e+00 1.387697e-01 -2.733564e+00 203 164 131
-1.058237e+00 2.138435e-01 -2.916343e+00 242 218 182
-8.390245e-01 2.221148e-01 -2.884659e+00 223 212 182
-8.390245e-01 2.221148e-01 -2.884659e+00 223 212 182
-1.172700e+00 2.191751e-01 -2.936569e+00 255 218 173
-1.325235e+00 2.225339e-01 -2.974213e+00 216 168 120
-1.210240e+00 2.347046e-01 -2.960386e+00 223 180 132
1.391497e+00 1.944969e-01 -2.706877e+00 250 219 188
-1.436122e+00 2.532656e-01 -2.987427e+00 155 105 68
-1.208072e+00 2.582509e-01 -2.968905e+00 216 172 127
-1.318250e+00 2.699992e-01 -2.993421e+00 229 189 148
-1.132805e+00 2.784352e-01 -2.964160e+00 255 235 193
9.671431e-01 1.959615e-01 -2.838125e+00 253 221 181
-1.200475e+00 2.839301e-01 -2.980363e+00 252 212 168
-9.718191e-02 2.813977e-01 -2.834163e+00 253 229 194
-1.013664e+00 2.904082e-01 -2.949503e+00 242 225 197
-7.511980e-01 2.954310e-01 -2.907589e+00 238 223 192
6.382702e-02 2.824191e-01 -2.833204e+00 249 226 192
-1.237679e+00 3.038199e-01 -2.999894e+00 213 170 125
-2.106766e-01 3.058749e-01 -2.856721e+00 252 232 192
6.689601e-02 3.014564e-01 -2.850211e+00 221 198 164
-1.362846e+00 3.285721e-01 -3.018410e+00 227 184 150
-3.735982e-01 3.232985e-01 -2.887683e+00 251 226 186
-1.337594e+00 3.314318e-01 -3.017010e+00 241 196 158
-1.312790e+00 3.348128e-01 -3.018930e+00 173 128 86
-1.340386e+00 3.419076e-01 -3.017418e+00 207 164 129
-1.352592e+00 3.616129e-01 -3.036111e+00 161 121 87
1.066576e+00 2.502985e-01 -2.907212e+00 255 234 200
1.103926e+00 2.606754e-01 -2.900627e+00 254 224 182
1.172935e+00 3.288360e-01 -2.965562e+00 255 222 184
1.142583e+00 3.282771e-01 -2.980501e+00 228 193 155
1.074701e+00 3.009569e-02 -2.827659e+00 11 12 14
-1.478816e+00 3.922105e-01 -3.021071e+00 217 167 130
-1.327567e+00 3.480221e-01 -3.096610e+00 138 111 80
-1.050187e+00 3.227112e-01 -3.002172e+00 206 180 144
1.402016e+00 3.683847e-02 -2.636933e+00 255 241 245
-1.386110e+00 1.222277e-01 -2.895786e+00 254 221 187
-1.561643e+00 1.871269e-01 -2.955882e+00 200 164 137
-1.343785e+00 -5.729414e-02 -2.938587e+00 154 122 100
1.408500e+00 6.780880e-02 -2.637743e+00 208 171 149
1.407265e+00 6.896817e-02 -2.636288e+00 208 171 149
1.037568e+00 1.536141e-01 -2.819307e+00 255 255 245
1.379196e+00 1.933656e-01 -2.720688e+00 255 220 183
1.385182e+00 2.175274e-01 -2.762598e+00 180 139 98
-1.479607e+00 -8.258013e-02 -2.929271e+00 255 251 246
-1.145228e+00 8.865630e-02 -2.933006e+00 226 210 194
9.981601e-01 1.736573e-03 -2.866604e+00 25 24 22
1.131601e+00 2.533718e-01 -2.866167e+00 255 231 209
1.240271e+00 3.451961e-01 -3.028544e+00 229 200 164
-6.146181e-01 2.583922e-01 -2.865854e+00 255 241 209
-1.328079e+00 3.272277e-01 -3.017238e+00 211 163 115
1.052657e+00 2.860659e-01 -2.958350e+00 215 178 137
1.197893e+00 3.390909e-01 -2.981519e+00 177 148 114
1.410604e+00 5.355262e-02 -2.637857e+00 208 167 137
-1.564845e+00 1.649625e-01 -2.917107e+00 174 125 82
-1.136689e+00 1.477962e-01 -2.910794e+00 224 195 165
1.293934e+00 1.289379e-01 -2.681085e+00 238 211 181
1.120890e+00 2.036597e-01 -2.840747e+00 255 244 213
-8.822363e-01 3.019642e-01 -2.935408e+00 241 218 186
-1.443424e+00 3.758582e-01 -3.023438e+00 166 114 74
1.062025e+00 3.070513e-01 -3.019854e+00 225 199 164
-1.510032e+00 2.439318e-02 -2.907384e+00 199 159 135
-1.541361e+00 3.844808e-02 -2.921990e+00 199 164 142
1.267343e+00 7.957848e-03 -2.692642e+00 219 193 169
-1.276289e+00 1.198194e-01 -2.914393e+00 253 218 180
1.261180e+00 5.921088e-02 -2.697251e+00 226 190 156
1.205655e+00 5.109338e-02 -2.778439e+00 198 181 173
-1.194171e+00 2.219504e-01 -2.942255e+00 218 170 122
1.191106e+00 1.491771e-01 -2.784478e+00 255 241 211
-1.448272e+00 2.581408e-01 -2.989980e+00 203 151 112
-7.327663e-01 2.776474e-01 -2.892611e+00 236 220 184
1.128724e+00 1.901023e-01 -2.832390e+00 255 248 218
9.357557e-01 1.975264e-01 -2.853385e+00 218 186 147
-1.304718e+00 2.828554e-01 -2.997721e+00 200 150 102
-1.230886e+00 2.962461e-01 -2.991351e+00 214 166 117
1.182612e+00 2.110827e-01 -2.849524e+00 136 97 58
-1.137184e+00 3.120491e-01 -2.991589e+00 221 188 147
1.261373e+00 3.173866e-01 -2.883487e+00 255 241 196
1.214994e+00 3.260173e-01 -2.893931e+00 210 173 129
-1.465842e+00 -5.172930e-02 -2.919557e+00 233 201 181
-1.377226e+00 -1.677244e-03 -2.919505e+00 191 156 136
1.413756e+00 -4.432136e-02 -2.677367e+00 119 88 77
-1.623800e+00 7.073951e-02 -2.940302e+00 212 165 126
-1.356346e+00 9.153875e-02 -2.901431e+00 226 190 158
1.262734e+00 1.984734e-02 -2.694988e+00 210 184 157
-1.299280e+00 9.536462e-02 -2.915889e+00 244 209 178
1.282152e+00 7.268511e-02 -2.665820e+00 255 250 230
1.313148e+00 7.449051e-02 -2.672183e+00 233 217 201
-1.392462e+00 1.608730e-01 -2.908663e+00 215 165 114
1.303675e+00 1.079852e-01 -2.663618e+00 255 250 232
-1.458051e+00 1.718389e-01 -2.925310e+00 237 193 148
-1.548848e+00 1.795750e-01 -2.935254e+00 144 100 62
1.260762e+00 1.050679e-01 -2.703079e+00 255 232 204
-8.432968e-01 1.671917e-01 -2.881299e+00 198 181 161
-1.511023e+00 1.886181e-01 -2.945468e+00 160 120 84
-1.066898e+00 2.114585e-01 -2.913749e+00 255 239 196
1.209188e+00 1.334069e-01 -2.774755e+00 255 219 195
1.207057e+00 1.360949e-01 -2.771330e+00 255 219 195
1.292551e+00 1.755092e-01 -2.725852e+00 255 223 184
1.243162e+00 1.546530e-01 -2.766001e+00 255 230 194
-5.679022e-01 2.417199e-01 -2.855303e+00 255 251 217
-1.163813e+00 2.349951e-01 -2.944188e+00 239 202 150
-3.533147e-01 2.396107e-01 -2.836899e+00 220 204 171
-7.713752e-01 2.881581e-01 -2.905426e+00 255 251 216
1.018459e+00 1.966766e-01 -2.845813e+00 201 163 118
-1.300493e+00 2.831254e-01 -2.996168e+00 194 146 97
-9.535298e-01 2.966016e-01 -2.932114e+00 255 250 216
-1.272613e+00 2.915883e-01 -2.994949e+00 250 203 150
8.119378e-01 2.360218e-01 -2.881146e+00 255 249 216
1.102994e+00 2.308064e-01 -2.865468e+00 245 199 147
1.082629e+00 2.318039e-01 -2.880888e+00 255 242 197
-1.282261e+00 3.344591e-01 -3.024350e+00 226 180 131
1.226019e+00 2.811314e-01 -2.860251e+00 221 178 135
-1.433210e+00 3.745553e-01 -3.021163e+00 177 130 88
-1.450791e+00 3.791859e-01 -3.027634e+00 185 132 90
1.329896e+00 2.961594e-01 -2.935440e+00 195 157 117
1.288631e+00 3.339569e-01 -2.920814e+00 213 183 149
1.100505e+00 3.195444e-01 -3.036002e+00 223 197 170
1.180265e+00 3.343742e-01 -3.002799e+00 117 92 64
1.243901e+00 3.392345e-01 -2.993105e+00 155 122 85
-1.475797e+00 -4.260788e-02 -2.920619e+00 237 201 181
-1.352069e+00 -6.873824e-02 -2.953536e+00 138 106 85
-1.351745e+00 -6.812587e-02 -2.952625e+00 138 106 85
-1.410535e+00 -3.071019e-02 -2.913229e+00 230 204 191
-1.443831e+00 5.454727e-03 -2.907000e+00 227 191 169
-1.449456e+00 1.246981e-02 -2.906249e+00 224 185 163
-1.318857e+00 -4.023381e-02 -2.966371e+00 212 185 166
-1.456556e+00 2.304167e-02 -2.901843e+00 195 157 134
-1.369908e+00 1.934924e-03 -2.920744e+00 145 107 84
-1.427066e+00 2.467417e-02 -2.906190e+00 231 197 172
-1.542354e+00 4.864106e-02 -2.914585e+00 239 204 182
-1.401552e+00 5.392246e-02 -2.896823e+00 255 227 196
-1.284179e+00 1.588115e-02 -2.949595e+00 153 126 107
-1.284179e+00 1.588115e-02 -2.949595e+00 153 126 107
-1.371990e+00 6.138521e-02 -2.903586e+00 237 202 172
-1.591858e+00 6.996047e-02 -2.920653e+00 202 162 135
1.344727e+00 1.992508e-03 -2.650341e+00 216 196 197
-1.436639e+00 8.684456e-02 -2.895848e+00 254 221 194
-1.541339e+00 9.153748e-02 -2.913156e+00 186 152 125
1.374472e+00 2.137737e-02 -2.641075e+00 218 199 201
-1.438128e+00 9.633496e-02 -2.894848e+00 249 214 182
-1.359987e+00 1.073273e-01 -2.899960e+00 197 161 128
-1.555315e+00 1.297080e-01 -2.907396e+00 213 182 162
1.368855e+00 6.118821e-02 -2.636205e+00 251 232 228
-1.268756e+00 1.127510e-01 -2.916148e+00 235 205 171
1.397769e+00 7.123956e-02 -2.636518e+00 220 186 165
-1.281184e+00 1.289470e-01 -2.913174e+00 255 218 179
-1.373355e+00 1.558083e-01 -2.904958e+00 231 183 134
-1.466938e+00 1.615730e-01 -2.910849e+00 255 215 178
-1.337657e+00 1.615647e-01 -2.906569e+00 137 90 48
-1.467402e+00 1.700625e-01 -2.921918e+00 219 172 130
-1.193268e+00 1.560589e-01 -2.910011e+00 201 162 122
1.259522e+00 9.231140e-02 -2.702217e+00 255 248 222
-1.313302e+00 1.690949e-01 -2.919363e+00 237 189 140
-1.313008e+00 1.690731e-01 -2.919476e+00 237 189 140
-1.390737e+00 1.754607e-01 -2.924417e+00 194 142 92
9.829315e-01 2.707330e-02 -2.869311e+00 255 242 222
-1.434826e+00 1.798933e-01 -2.935878e+00 121 74 30
-1.468718e+00 1.885965e-01 -2.941335e+00 119 77 35
-1.154800e+00 1.827276e-01 -2.912350e+00 208 167 121
-1.136655e+00 1.866525e-01 -2.914404e+00 254 223 175
1.197760e+00 1.060609e-01 -2.765691e+00 215 180 160
-1.426530e+00 1.952021e-01 -2.958041e+00 123 74 33
-1.173284e+00 2.104059e-01 -2.929080e+00 254 210 162
-1.416866e+00 2.097049e-01 -2.983481e+00 224 172 120
-1.195591e+00 2.215407e-01 -2.937652e+00 210 162 114
1.203025e+00 1.445060e-01 -2.777436e+00 255 234 199
-1.181843e+00 2.267287e-01 -2.942988e+00 231 184 132
1.337414e+00 1.816515e-01 -2.702312e+00 244 210 175
-1.006697e+00 2.356994e-01 -2.916579e+00 255 246 205
-1.177286e+00 2.326509e-01 -2.946950e+00 223 177 125
-1.294538e+00 2.329344e-01 -2.972366e+00 210 161 105
-5.212164e-01 2.481537e-01 -2.852275e+00 255 242 206
1.296421e+00 1.822096e-01 -2.742042e+00 220 183 141
1.357476e+00 1.965568e-01 -2.713478e+00 214 180 142
9.690191e-01 1.810316e-01 -2.829943e+00 235 207 173
-1.291601e+00 2.591940e-01 -2.988036e+00 222 176 124
-4.112868e-01 2.753953e-01 -2.851195e+00 247 228 198
-4.112868e-01 2.753953e-01 -2.851195e+00 247 228 198
-6.069011e-01 2.767305e-01 -2.874913e+00 255 241 208
-6.669990e-01 2.793673e-01 -2.884925e+00 255 244 211
9.350469e-01 1.922699e-01 -2.839426e+00 219 187 148
9.351188e-01 1.921607e-01 -2.839528e+00 219 187 148
9.595315e-01 1.945699e-01 -2.837426e+00 255 239 202
9.265405e-01 1.966076e-01 -2.838959e+00 255 229 189
-1.263660e+00 2.704149e-01 -2.986264e+00 236 188 140
-1.312857e+00 2.730013e-01 -2.995918e+00 174 122 74
9.951512e-01 2.011038e-01 -2.865145e+00 226 191 151
-7.382243e-01 2.996242e-01 -2.908786e+00 255 247 211
-9.538751e-01 2.969433e-01 -2.942661e+00 233 209 173
-1.055968e+00 2.974220e-01 -2.963387e+00 239 207 161
-8.658119e-02 2.972356e-01 -2.845619e+00 255 233 199
-1.254913e+00 2.983420e-01 -2.996886e+00 234 188 138
-1.254750e+00 2.981605e-01 -2.996685e+00 234 188 138
-5.621297e-01 3.090382e-01 -2.890651e+00 233 211 172
-1.403092e+00 3.126977e-01 -3.001826e+00 249 209 173
8.479093e-01 2.272363e-01 -2.878146e+00 255 239 207
-2.933170e-02 3.040153e-01 -2.853833e+00 222 204 168
1.089213e+00 2.229610e-01 -2.869929e+00 198 151 99
-3.788600e-02 3.115330e-01 -2.859458e+00 244 221 187
-1.256071e+00 3.213564e-01 -3.011743e+00 184 138 88
-1.082031e+00 3.200611e-01 -2.994802e+00 164 130 85
-1.230780e+00 3.236630e-01 -3.013299e+00 139 101 58
-1.405544e+00 3.390323e-01 -3.009275e+00 133 89 60
-1.361630e+00 3.324011e-01 -3.017789e+00 146 101 60
-1.238565e+00 3.253965e-01 -3.019012e+00 129 86 40
-1.318643e+00 3.343680e-01 -3.020041e+00 238 190 142
-1.318761e+00 3.343578e-01 -3.019996e+00 238 190 142
-1.397897e+00 3.745510e-01 -3.029780e+00 127 80 42
-1.497949e+00 3.909434e-01 -3.069723e+00 236 194 154
1.069327e+00 2.972763e-01 -2.980585e+00 210 173 128
1.066173e+00 2.998737e-01 -2.986141e+00 254 223 181
1.195050e+00 3.273380e-01 -2.946505e+00 255 228 190
1.137288e+00 3.229835e-01 -2.966809e+00 255 242 201
1.275398e+00 3.369153e-01 -2.934721e+00 183 152 118
1.187503e+00 3.345940e-01 -2.989640e+00 132 107 77
1.192364e+00 3.335720e-01 -3.026687e+00 115 97 78
-1.416814e+00 -8.482330e-02 -2.929128e+00 248 223 211
-1.352041e+00 -8.566866e-02 -2.952950e+00 174 140 112
-1.416278e+00 -4.117570e-02 -2.914509e+00 236 213 199
-1.318731e+00 -8.438314e-02 -2.971442e+00 34 24 15
-1.381257e+00 -4.456307e-02 -2.928092e+00 238 211 192
-1.429175e+00 -1.935598e-02 -2.911607e+00 241 212 196
-1.378649e+00 -3.144882e-02 -2.925987e+00 215 183 168
-1.359202e+00 -3.096950e-02 -2.933404e+00 241 212 196
-1.544721e+00 -3.495112e-03 -2.928532e+00 255 224 201
-1.462024e+00 3.657071e-02 -2.900922e+00 221 189 164
-1.375061e+00 2.682267e-02 -2.910042e+00 237 202 170
-1.392931e+00 3.174399e-02 -2.907622e+00 248 214 187
-1.372475e+00 3.610125e-02 -2.907345e+00 245 209 178
-1.281918e+00 -1.610369e-02 -2.974273e+00 246 224 200
-1.435607e+00 5.525454e-02 -2.900045e+00 190 160 133
-1.519285e+00 6.696628e-02 -2.907008e+00 227 199 177
-1.324588e+00 5.111515e-02 -2.917384e+00 159 124 94
-1.576156e+00 8.128957e-02 -2.915320e+00 252 217 191
1.361147e+00 2.274531e-02 -2.640582e+00 218 202 202
1.329279e+00 1.686986e-02 -2.652487e+00 255 243 244
-1.301750e+00 8.340216e-02 -2.914599e+00 183 149 121
1.418352e+00 4.356986e-02 -2.640755e+00 255 238 237
-1.492802e+00 1.540136e-01 -2.905379e+00 237 199 160
1.238877e+00 4.940868e-02 -2.724009e+00 231 201 173
-1.070363e+00 1.228136e-01 -2.911819e+00 216 196 171
-1.312112e+00 1.493370e-01 -2.908716e+00 223 179 134
-1.346791e+00 1.553334e-01 -2.905897e+00 255 217 172
-1.485586e+00 1.634451e-01 -2.912269e+00 221 174 130
-1.470097e+00 1.672319e-01 -2.918965e+00 184 140 93
-1.470099e+00 1.671797e-01 -2.918984e+00 184 140 93
-1.162170e+00 1.593542e-01 -2.908901e+00 255 229 192
9.923554e-01 1.664698e-02 -2.865397e+00 212 181 152
-1.394377e+00 1.770628e-01 -2.927759e+00 238 188 135
1.314060e+00 1.244891e-01 -2.670049e+00 240 222 199
-1.186562e+00 1.731101e-01 -2.912145e+00 189 142 96
9.231388e-01 3.108348e-02 -2.874454e+00 203 179 155
-1.314030e+00 1.806445e-01 -2.935065e+00 99 51 4
-1.154004e+00 1.861023e-01 -2.914330e+00 255 218 173
1.195744e+00 8.836263e-02 -2.773745e+00 255 244 229
-1.288670e+00 1.900936e-01 -2.933221e+00 213 163 113
-1.288670e+00 1.900936e-01 -2.933221e+00 213 163 113
-1.379015e+00 1.895395e-01 -2.948336e+00 226 174 123
-1.378993e+00 1.895595e-01 -2.948703e+00 226 174 123
-1.190394e+00 1.951690e-01 -2.920708e+00 255 211 165
1.172102e+00 1.131799e-01 -2.773358e+00 208 181 166
1.188140e+00 1.144313e-01 -2.774266e+00 219 183 157
-1.169453e+00 2.049646e-01 -2.926040e+00 255 209 161
-1.374488e+00 2.013327e-01 -2.959296e+00 154 104 55
-1.416793e+00 1.998824e-01 -2.976000e+00 170 126 87
-1.209832e+00 2.121620e-01 -2.929215e+00 249 206 157
-1.245598e+00 2.095070e-01 -2.944328e+00 217 169 120
-1.221674e+00 2.137758e-01 -2.935304e+00 222 174 126
-1.350230e+00 2.084737e-01 -2.961814e+00 223 173 122
-1.189118e+00 2.144789e-01 -2.936068e+00 157 108 65
-1.338812e+00 2.116634e-01 -2.966204e+00 164 114 61
-1.304009e+00 2.145707e-01 -2.961057e+00 255 207 151
-1.323853e+00 2.150081e-01 -2.964056e+00 222 172 121
-3.862078e-01 2.326603e-01 -2.837866e+00 242 225 195
-1.117762e+00 2.336177e-01 -2.934755e+00 243 211 164
-1.226378e+00 2.306923e-01 -2.953632e+00 213 165 116
-5.722982e-01 2.430697e-01 -2.855371e+00 255 247 214
-1.396100e+00 2.255493e-01 -2.992717e+00 136 90 56
-1.190354e+00 2.349966e-01 -2.951882e+00 235 189 139
-5.019472e-01 2.460139e-01 -2.848155e+00 247 229 193
-1.308179e+00 2.315387e-01 -2.978606e+00 215 168 116
1.214638e+00 1.587632e-01 -2.791723e+00 239 206 161
-1.297706e+00 2.392853e-01 -2.979391e+00 209 162 108
-1.038122e+00 2.491986e-01 -2.929505e+00 232 209 167
-1.037665e+00 2.502649e-01 -2.927908e+00 232 209 167
1.123424e+00 1.623874e-01 -2.807236e+00 242 233 206
-1.331661e+00 2.401635e-01 -2.986822e+00 252 210 156
-1.391639e+00 2.393849e-01 -2.997290e+00 250 202 154
-1.200589e+00 2.497492e-01 -2.958237e+00 230 184 134
1.146393e+00 1.689441e-01 -2.815500e+00 228 214 185
-1.083255e+00 2.603967e-01 -2.942115e+00 255 240 192
1.035785e+00 1.752882e-01 -2.822189e+00 192 160 121
-8.574151e-01 2.672188e-01 -2.904666e+00 236 214 175
-8.574151e-01 2.672188e-01 -2.904666e+00 236 214 175
-8.435038e-01 2.687650e-01 -2.903834e+00 236 218 180
-5.738162e-01 2.750967e-01 -2.869220e+00 241 225 192
-1.329721e+00 2.657329e-01 -2.995593e+00 255 222 173
-8.828467e-01 2.809271e-01 -2.921886e+00 234 218 182
1.126300e+00 1.903869e-01 -2.833814e+00 255 250 218
-1.213342e+00 2.759179e-01 -2.978511e+00 231 185 135
-1.263193e+00 2.753038e-01 -2.987028e+00 175 127 78
1.118299e+00 1.952700e-01 -2.838385e+00 215 195 162
9.493316e-01 2.011156e-01 -2.851367e+00 213 181 142
-1.212240e+00 2.829258e-01 -2.980815e+00 208 162 113
-1.287332e+00 2.849225e-01 -2.994239e+00 203 155 106
-6.697810e-01 2.995052e-01 -2.898583e+00 212 196 162
-5.867043e-01 3.022900e-01 -2.888230e+00 224 199 159
-4.772998e-01 3.034711e-01 -2.874196e+00 255 241 208
-1.107557e+00 2.968196e-01 -2.971729e+00 246 203 152
-1.061168e+00 2.989632e-01 -2.965575e+00 255 224 178
-3.288097e-01 3.044283e-01 -2.864196e+00 228 205 167
-4.566612e-01 3.090414e-01 -2.878470e+00 228 208 175
-1.233633e+00 3.018053e-01 -2.995606e+00 255 209 157
3.090430e-01 2.809021e-01 -2.842764e+00 252 233 200
-1.094902e+00 3.082756e-01 -2.980750e+00 216 179 134
-9.951471e-01 3.124688e-01 -2.966994e+00 229 205 171
-1.351720e+00 3.153391e-01 -3.009494e+00 194 147 103
1.117591e+00 2.295118e-01 -2.857418e+00 245 202 157
-1.217809e+00 3.134544e-01 -3.001780e+00 253 211 161
-1.131034e-01 3.126614e-01 -2.868356e+00 240 217 183
-3.730820e-01 3.237682e-01 -2.886666e+00 245 222 181
-1.144987e+00 3.177414e-01 -3.000479e+00 201 167 129
-1.242227e+00 3.211446e-01 -3.009190e+00 231 184 134
-1.362315e+00 3.262775e-01 -3.015162e+00 203 160 118
-2.620013e-01 3.260393e-01 -2.882192e+00 187 167 130
-1.212460e+00 3.212768e-01 -3.013896e+00 221 187 143
-1.365519e+00 3.307301e-01 -3.015699e+00 221 177 138
1.126508e+00 2.502118e-01 -2.867009e+00 255 243 219
-1.253883e+00 3.308799e-01 -3.023794e+00 224 182 132
-1.348692e+00 3.471853e-01 -3.024593e+00 221 177 132
-6.195500e-02 3.352328e-01 -2.899222e+00 237 217 182
1.191227e+00 2.738050e-01 -2.862394e+00 197 151 106
-1.313405e+00 3.491597e-01 -3.036891e+00 191 148 105
1.191283e+00 2.809568e-01 -2.883500e+00 173 123 74
-1.412833e+00 3.759149e-01 -3.029101e+00 138 92 57
-1.412181e+00 3.767468e-01 -3.027389e+00 138 92 57
-1.464720e+00 3.887745e-01 -3.043467e+00 188 137 94
-1.438450e+00 3.895863e-01 -3.040237e+00 158 108 71
1.103252e+00 3.164380e-01 -2.981986e+00 215 183 147
1.254530e+00 3.333817e-01 -2.949977e+00 242 209 174
1.089455e+00 3.181735e-01 -3.006196e+00 244 215 183
1.163869e+00 3.327652e-01 -2.981596e+00 175 146 108
1.151921e+00 3.372999e-01 -3.019669e+00 187 170 154
-1.332002e+00 -9.274794e-02 -2.965528e+00 123 103 84
-1.373279e+00 -5.856907e-02 -2.928898e+00 222 195 178
-1.348389e+00 -5.840213e-02 -2.953606e+00 209 181 167
-1.426694e+00 -1.074888e-03 -2.909059e+00 208 175 157
-1.533426e+00 2.826047e-02 -2.918858e+00 171 136 116
-1.424176e+00 3.212677e-02 -2.907503e+00 211 178 152
-1.388965e+00 2.993876e-02 -2.907634e+00 213 179 153
-1.352860e+00 7.994224e-02 -2.904370e+00 253 238 206
1.295601e+00 -7.497390e-02 -2.794299e+00 197 174 142
1.377944e+00 2.196762e-02 -2.640682e+00 252 236 237
1.293052e+00 2.110929e-02 -2.667213e+00 173 153 143
-1.339815e+00 9.503208e-02 -2.905974e+00 196 163 132
-1.378326e+00 1.253442e-01 -2.891147e+00 255 236 201
-1.384151e+00 1.399302e-01 -2.896009e+00 238 204 167
-1.333261e+00 1.384491e-01 -2.903395e+00 188 148 112
1.434316e+00 7.835720e-02 -2.643543e+00 237 221 221
-1.551192e+00 1.622385e-01 -2.903548e+00 244 199 163
-1.305603e+00 1.432847e-01 -2.903987e+00 212 170 130
-1.306436e+00 1.457427e-01 -2.905364e+00 237 194 152
-1.512406e+00 1.841635e-01 -2.910947e+00 209 164 129
-1.460813e+00 1.739456e-01 -2.928439e+00 153 108 65
-1.405143e+00 1.755140e-01 -2.924211e+00 219 169 116
-1.440563e+00 1.751076e-01 -2.930245e+00 210 166 119
-1.290970e+00 1.713880e-01 -2.917761e+00 203 157 108
-1.349603e+00 1.732828e-01 -2.923164e+00 198 148 95
-1.419275e+00 1.780010e-01 -2.929098e+00 158 109 66
-1.254257e+00 1.734629e-01 -2.916665e+00 196 152 107
-1.163418e+00 1.718385e-01 -2.910443e+00 254 231 186
-1.401987e+00 1.789874e-01 -2.935287e+00 236 187 131
-1.167644e+00 1.765742e-01 -2.913144e+00 252 208 163
1.235043e+00 9.028048e-02 -2.744973e+00 152 113 80
-1.157612e+00 1.772367e-01 -2.912244e+00 255 220 175
-1.439578e+00 1.834195e-01 -2.941197e+00 171 126 81
-1.346313e+00 1.811409e-01 -2.934765e+00 219 167 117
-1.222547e+00 1.826499e-01 -2.918025e+00 211 164 120
-1.058843e+00 1.813630e-01 -2.902580e+00 236 208 169
-1.464269e+00 1.898713e-01 -2.942155e+00 177 134 92
-1.464303e+00 1.900537e-01 -2.942038e+00 177 134 92
-1.377564e+00 1.827972e-01 -2.943162e+00 184 132 82
-1.097997e+00 1.841218e-01 -2.905717e+00 255 243 204
-1.123260e+00 1.852827e-01 -2.911322e+00 237 204 156
-1.123260e+00 1.852827e-01 -2.911322e+00 237 204 156
-1.393526e+00 1.928970e-01 -2.941672e+00 252 203 152
-1.431327e+00 1.984090e-01 -2.956108e+00 151 103 57
-1.246721e+00 1.971020e-01 -2.934932e+00 200 152 104
1.201732e+00 1.087111e-01 -2.766977e+00 250 215 194
-1.115384e+00 1.985465e-01 -2.915525e+00 226 188 140
-1.260665e+00 2.004907e-01 -2.936777e+00 186 136 86
-1.184131e+00 2.018708e-01 -2.927167e+00 221 174 128
-1.191297e+00 2.046929e-01 -2.927965e+00 255 216 170
-1.105239e+00 2.051993e-01 -2.915823e+00 255 217 168
-1.235477e+00 2.041603e-01 -2.934860e+00 254 206 158
-1.061943e+00 2.086005e-01 -2.911725e+00 246 217 175
-7.740732e-01 2.094215e-01 -2.873005e+00 216 200 167
-1.348051e+00 2.052959e-01 -2.959970e+00 158 108 57
-1.348199e+00 2.053488e-01 -2.960106e+00 158 108 57
-1.322515e+00 2.088211e-01 -2.960566e+00 255 211 160
1.337262e+00 1.699093e-01 -2.690823e+00 210 185 156
1.325579e+00 1.711165e-01 -2.698052e+00 253 221 185
-1.246446e+00 2.171850e-01 -2.950367e+00 238 188 139
-1.172378e+00 2.216508e-01 -2.938367e+00 236 193 140
-2.812083e-01 2.181044e-01 -2.829527e+00 240 224 190
-1.407141e+00 2.209040e-01 -2.992012e+00 201 157 113
-1.407141e+00 2.209040e-01 -2.992012e+00 201 157 113
1.105850e+00 1.426002e-01 -2.806199e+00 255 245 221
-1.254521e+00 2.295817e-01 -2.959391e+00 242 192 142
-1.246546e+00 2.301606e-01 -2.960634e+00 202 152 103
-1.401545e+00 2.260598e-01 -2.997520e+00 104 60 29
-8.978031e-01 2.481536e-01 -2.902706e+00 238 209 165
-1.235180e+00 2.458861e-01 -2.968884e+00 210 163 111
-1.052384e+00 2.541044e-01 -2.932972e+00 255 233 192
1.349620e+00 2.012888e-01 -2.724603e+00 188 154 116
-1.055839e+00 2.562481e-01 -2.933701e+00 241 210 164
-9.592983e-01 2.587017e-01 -2.918552e+00 221 206 175
-1.192827e+00 2.528191e-01 -2.963433e+00 198 152 100
-1.192827e+00 2.528191e-01 -2.963433e+00 198 152 100
-1.203250e+00 2.527187e-01 -2.964710e+00 228 180 131
-1.288278e+00 2.505802e-01 -2.984091e+00 196 146 95
-1.161764e+00 2.570982e-01 -2.957320e+00 193 148 96
-1.161881e+00 2.568416e-01 -2.957621e+00 193 148 96
-1.202878e+00 2.556019e-01 -2.966047e+00 254 211 162
-1.289745e+00 2.524903e-01 -2.986673e+00 254 207 155
-1.208168e+00 2.581709e-01 -2.968931e+00 213 167 117
1.013937e+00 1.836312e-01 -2.825677e+00 253 225 187
-8.449130e-01 2.722012e-01 -2.905657e+00 255 236 199
-1.333374e+00 2.670802e-01 -2.996226e+00 192 146 97
1.008581e+00 1.904482e-01 -2.835102e+00 255 222 183
-1.372948e+00 2.753522e-01 -2.996382e+00 241 193 145
-1.053805e+00 2.837385e-01 -2.949738e+00 235 208 163
-1.054178e+00 2.832831e-01 -2.950641e+00 235 208 163
-1.117143e+00 2.825528e-01 -2.963476e+00 251 217 165
-1.361251e+00 2.816206e-01 -3.001075e+00 236 188 142
1.118258e+00 1.988081e-01 -2.839765e+00 255 250 219
-1.248805e+00 2.826741e-01 -2.987979e+00 242 194 145
-1.332405e+00 2.820719e-01 -3.002132e+00 220 172 124
-1.226256e+00 2.848705e-01 -2.984991e+00 229 185 136
-1.340665e+00 2.840434e-01 -3.001005e+00 238 187 140
-1.274212e+00 2.868076e-01 -2.993527e+00 226 179 125
-1.274352e+00 2.866496e-01 -2.993969e+00 226 179 125
1.128676e+00 2.000492e-01 -2.846798e+00 255 247 215
-1.062376e+00 2.956342e-01 -2.962066e+00 255 227 180
1.121005e+00 2.161174e-01 -2.840315e+00 224 201 169
1.064790e+00 2.138819e-01 -2.850203e+00 208 172 122
-3.428038e-01 3.105933e-01 -2.868331e+00 234 210 167
-1.387298e+00 3.078583e-01 -3.006221e+00 218 179 156
-9.503901e-01 3.084471e-01 -2.952258e+00 254 236 199
-2.585716e-01 3.179845e-01 -2.871691e+00 184 162 125
-1.300602e+00 3.147107e-01 -3.009070e+00 254 214 162
-1.372683e+00 3.199447e-01 -3.011094e+00 206 163 129
-1.372683e+00 3.199447e-01 -3.011094e+00 206 163 129
-1.277060e+00 3.160918e-01 -3.009260e+00 185 137 89
1.149106e+00 2.385522e-01 -2.854100e+00 233 203 175
-1.292497e+00 3.245429e-01 -3.014296e+00 204 156 108
-1.368509e+00 3.297427e-01 -3.014449e+00 174 132 92
-1.362046e+00 3.299375e-01 -3.015637e+00 231 188 146
-1.273017e+00 3.261463e-01 -3.015031e+00 254 209 159
-1.323595e+00 3.395458e-01 -3.023257e+00 186 140 92
-1.414879e+00 3.553393e-01 -3.012918e+00 189 145 108
-1.292789e+00 3.439287e-01 -3.037869e+00 143 102 61
1.125451e+00 2.668729e-01 -2.884491e+00 218 184 149
1.125451e+00 2.668729e-01 -2.884491e+00 218 184 149
1.169075e+00 2.723377e-01 -2.872851e+00 255 217 176
1.250370e+00 2.811008e-01 -2.865617e+00 241 218 177
1.191578e+00 2.804256e-01 -2.874216e+00 176 126 77
1.191024e+00 2.810590e-01 -2.873332e+00 176 126 77
1.189997e+00 2.804301e-01 -2.878195e+00 222 172 123
1.151405e+00 2.778884e-01 -2.894918e+00 250 212 175
-1.473470e+00 3.864819e-01 -3.046670e+00 173 124 83
1.336386e+00 2.654591e-01 -2.944045e+00 38 14 0
1.251729e+00 3.172230e-01 -2.879438e+00 215 178 133
1.044415e+00 2.907560e-01 -2.980533e+00 246 214 175
1.270263e+00 3.373180e-01 -2.946063e+00 170 138 100
1.202808e+00 3.343886e-01 -3.024012e+00 169 151 127
-1.623751e+00 1.935622e-01 -3.030014e+00 12 13 15
-1.392667e+00 2.699201e-01 -3.009801e+00 255 208 162
-1.558882e+00 1.967953e-01 -3.064710e+00 234 200 173
-1.261946e+00 2.472499e-01 -2.980830e+00 143 105 69
-1.261596e+00 2.461039e-01 -2.983266e+00 143 105 69
1.236635e+00 7.970174e-02 -2.727951e+00 228 192 160
-1.092338e+00 2.344841e-01 -2.931111e+00 255 223 177
-1.482297e+00 2.149878e-01 -2.981598e+00 224 180 137
-1.181380e+00 2.867119e-01 -2.979092e+00 255 222 174
-9.516001e-01 2.921221e-01 -2.935780e+00 255 232 198
-1.425796e+00 -6.032302e-02 -2.918880e+00 185 161 159
1.250817e+00 7.655516e-02 -2.708194e+00 251 221 195
-1.433496e+00 -5.139565e-03 -2.910343e+00 200 168 153
1.314184e+00 1.528483e-01 -2.688205e+00 255 235 209
-1.357687e+00 1.907119e-01 -2.943600e+00 185 134 87
-1.556931e+00 1.865776e-01 -2.954472e+00 204 168 145
-1.275596e+00 2.174963e-01 -2.955589e+00 238 191 139
-1.231911e+00 2.526415e-01 -2.971605e+00 199 153 104
1.040938e+00 2.937462e-01 -2.994498e+00 230 198 160
-1.283533e+00 2.554679e-01 -2.983817e+00 252 209 158
1.000378e+00 1.579715e-02 -2.869383e+00 229 203 176
1.209957e+00 1.010687e-01 -2.765839e+00 228 193 173
-1.317411e+00 1.860142e-01 -2.928797e+00 176 128 82
1.151908e+00 2.741942e-01 -2.882400e+00 231 192 157
-5.795990e-01 3.157518e-01 -2.899615e+00 255 234 195
-1.402865e+00 3.107360e-01 -3.002915e+00 239 197 162
1.304276e+00 9.538915e-02 -2.658668e+00 255 242 229
1.223148e+00 5.014194e-02 -2.762049e+00 237 206 185
1.224080e+00 4.936682e-02 -2.762683e+00 237 206 185
1.194313e+00 8.805746e-02 -2.772025e+00 255 240 231
-1.558443e+00 5.337570e-02 -2.917549e+00 252 220 197
1.018992e+00 9.869647e-02 -2.842038e+00 255 249 250
1.316980e+00 1.923548e-01 -2.742805e+00 249 211 172
1.207718e+00 1.742036e-01 -2.801553e+00 255 241 200
-1.533728e+00 1.633044e-01 -2.901846e+00 162 113 78
-1.110534e+00 1.839865e-01 -2.911537e+00 225 188 144
-1.131542e+00 2.450622e-01 -2.941439e+00 254 219 169
1.115785e+00 3.212589e-01 -2.988428e+00 254 222 188
-1.298437e+00 2.998379e-01 -3.002338e+00 225 177 131
-1.333960e+00 3.250285e-01 -3.015253e+00 200 153 107
-1.418895e+00 3.566986e-01 -3.014895e+00 196 152 117
1.296361e+00 1.837165e-02 -2.665529e+00 244 228 231
1.263842e+00 1.150007e-02 -2.699144e+00 178 151 124
1.243066e+00 7.111545e-02 -2.716223e+00 233 199 171
-1.538317e+00 2.243868e-02 -2.921370e+00 233 200 182
1.297785e+00 1.625789e-01 -2.705838e+00 225 187 150
1.191308e+00 1.642229e-01 -2.803647e+00 255 241 204
1.144801e+00 1.665743e-01 -2.809895e+00 255 247 217
1.010154e+00 1.854186e-01 -2.828332e+00 244 209 172
-1.352309e+00 1.375006e-01 -2.897235e+00 233 194 161
-1.525867e+00 1.409988e-01 -2.903032e+00 248 219 201
-1.525867e+00 1.409988e-01 -2.903032e+00 248 219 201
-1.284826e+00 1.367104e-01 -2.910957e+00 240 203 167
-1.495840e+00 1.523733e-01 -2.903053e+00 255 218 179
-1.508387e+00 1.593113e-01 -2.904677e+00 243 200 166
1.023677e+00 2.064003e-01 -2.851752e+00 224 185 142
-1.250345e+00 1.857202e-01 -2.924996e+00 203 156 110
-7.514695e-01 2.339813e-01 -2.873932e+00 255 236 203
-1.390094e+00 1.882951e-01 -2.943636e+00 165 115 66
-1.468828e+00 1.886887e-01 -2.941430e+00 135 92 57
-1.073122e+00 2.127214e-01 -2.915240e+00 229 199 157
-1.140401e-01 3.057320e-01 -2.853298e+00 228 208 173
-1.259714e+00 2.343097e-01 -2.967007e+00 196 150 101
-1.243758e+00 2.547275e-01 -2.976066e+00 255 221 171
1.203433e+00 3.204856e-01 -2.947563e+00 217 181 144
-1.327217e+00 2.501620e-01 -2.992012e+00 183 139 92
1.122227e+00 3.241366e-01 -2.991732e+00 251 217 182
-1.362357e+00 2.784548e-01 -2.999358e+00 196 147 104
-1.207588e+00 2.942807e-01 -2.987374e+00 217 175 125
-1.277104e+00 2.974140e-01 -3.004628e+00 142 98 59
-1.463375e+00 3.903620e-01 -3.040761e+00 188 142 94
-1.334590e+00 -7.887647e-02 -2.959527e+00 169 139 118
1.224539e+00 1.057783e-01 -2.756346e+00 239 198 166
-1.346869e+00 4.355442e-02 -2.915000e+00 233 200 169
1.086011e+00 1.337123e-01 -2.805465e+00 239 228 211
8.505083e-01 7.712479e-02 -2.892698e+00 234 209 180
-1.274110e+00 9.892476e-02 -2.914196e+00 244 218 191
-1.526762e+00 1.183804e-01 -2.900969e+00 255 242 226
-1.186265e+00 1.250262e-01 -2.915078e+00 186 165 146
1.075686e+00 1.866472e-01 -2.831094e+00 234 217 190
1.006079e+00 1.968972e-01 -2.836707e+00 252 210 168
1.056947e+00 2.013737e-01 -2.843786e+00 255 226 181
-1.453643e+00 1.649775e-01 -2.917185e+00 234 191 149
1.049722e+00 2.185959e-01 -2.872764e+00 255 231 189
-1.159794e+00 1.862817e-01 -2.918566e+00 204 162 115
-1.267304e+00 1.827707e-01 -2.924020e+00 230 183 137
-1.466008e+00 1.860767e-01 -2.937506e+00 174 132 94
-1.400894e+00 2.175351e-01 -2.988327e+00 230 180 127
-1.447164e+00 2.283228e-01 -2.981220e+00 247 205 157
-7.366438e-01 2.962019e-01 -2.907131e+00 236 218 182
1.056805e+00 2.959253e-01 -2.983164e+00 246 211 171
1.104542e+00 3.157540e-01 -2.983175e+00 224 190 155
-1.383357e+00 2.582521e-01 -2.995093e+00 219 173 124
-1.317528e+00 2.686550e-01 -2.995808e+00 229 185 136
-1.201061e+00 2.805022e-01 -2.979779e+00 212 169 118
-1.284211e+00 3.137003e-01 -3.010138e+00 222 177 131
-1.261767e+00 3.211592e-01 -3.011538e+00 202 158 109
-1.373164e+00 3.594801e-01 -3.025778e+00 155 113 78
-1.405612e+00 3.645255e-01 -3.016913e+00 214 168 131
1.259734e+00 2.876279e-02 -2.700185e+00 208 172 140
1.248775e+00 8.025609e-02 -2.709388e+00 251 220 192
1.268506e+00 1.184525e-01 -2.707942e+00 237 199 164
-1.367278e+00 2.336670e-02 -2.915420e+00 216 182 155
-1.416733e+00 4.422108e-02 -2.899973e+00 213 184 159
-1.439970e+00 5.045049e-02 -2.898846e+00 232 201 179
-1.404913e+00 6.060660e-02 -2.900447e+00 246 214 189
1.128983e+00 1.514941e-01 -2.805235e+00 255 242 212
-1.463822e+00 1.053474e-01 -2.895198e+00 254 225 195
-1.369033e+00 1.089962e-01 -2.895920e+00 200 164 138
-1.379067e+00 1.230234e-01 -2.894158e+00 252 219 188
8.924361e-01 1.917166e-01 -2.842586e+00 235 212 170
-1.150718e+00 1.844206e-01 -2.912224e+00 214 176 131
-1.399496e+00 1.891453e-01 -2.946918e+00 237 190 138
-1.213336e+00 2.049805e-01 -2.933353e+00 219 175 128
-7.523891e-01 2.749124e-01 -2.894533e+00 233 212 173
-1.310522e+00 2.414670e-01 -2.984276e+00 220 170 117
1.043211e+00 2.913075e-01 -2.979764e+00 241 207 168
-1.256772e+00 2.535293e-01 -2.982844e+00 224 179 137
