ply
format ascii 1.0
element face 0
property list uchar int vertex_indices
element vertex 906
property float x
property float y
property float z
property uchar diffuse_red
property uchar diffuse_green
property uchar diffuse_blue
end_header
-1.388911e+00 2.187382e-01 -2.988662e+00 243 192 139
-7.145097e-01 2.865579e-01 -2.894231e+00 255 244 211
1.037994e+00 2.873299e-01 -2.958554e+00 250 216 178
-1.414632e+00 2.300849e-01 -2.988616e+00 218 169 133
-9.742452e-01 2.942779e-01 -2.944592e+00 232 212 177
-1.204318e+00 2.802853e-01 -2.984041e+00 211 167 118
-1.286317e+00 3.039558e-01 -3.004643e+00 246 198 147
-1.281728e+00 3.401846e-01 -3.032294e+00 160 123 78
-1.395720e+00 3.742901e-01 -3.031089e+00 141 95 59
-1.371091e+00 3.801767e-01 -3.059604e+00 182 148 111
-1.390233e+00 -9.720975e-02 -2.937698e+00 188 165 157
-1.370652e+00 -8.341049e-02 -2.937946e+00 214 186 173
1.249442e+00 5.098091e-02 -2.702440e+00 244 214 186
-1.349924e+00 -7.690787e-02 -2.951963e+00 223 191 168
-1.412650e+00 -5.138266e-02 -2.917761e+00 224 201 195
-1.380557e+00 -5.559355e-02 -2.924083e+00 228 200 186
-1.375067e+00 -5.459235e-02 -2.926829e+00 183 155 143
-1.409579e+00 -4.285514e-02 -2.914098e+00 251 228 220
1.230041e+00 6.191425e-02 -2.722558e+00 230 195 165
-1.456859e+00 -1.032254e-02 -2.908672e+00 232 198 179
1.221140e+00 6.044167e-02 -2.753508e+00 191 160 132
-1.481296e+00 -1.164903e-02 -2.913570e+00 199 164 144
-1.559570e+00 -3.088336e-02 -2.946494e+00 199 167 146
-1.306958e+00 -4.645897e-02 -2.973444e+00 111 82 62
-1.369028e+00 -6.941204e-03 -2.917200e+00 228 201 184
-1.593912e+00 -3.428977e-02 -2.962803e+00 239 211 198
-1.505102e+00 -4.888369e-03 -2.919181e+00 184 146 123
9.611632e-01 -3.836977e-03 -2.872428e+00 25 14 12
1.321549e+00 1.436851e-01 -2.660013e+00 255 237 217
-1.524539e+00 2.235139e-03 -2.922251e+00 226 191 175
-1.593815e+00 -1.116342e-02 -2.948730e+00 221 189 166
-1.452650e+00 1.981602e-02 -2.900862e+00 242 207 187
1.260562e+00 1.273848e-01 -2.707029e+00 184 146 110
-1.402966e+00 2.178171e-02 -2.908702e+00 231 200 180
-1.583646e+00 5.999441e-03 -2.938267e+00 230 199 178
-1.364444e+00 2.048437e-02 -2.912732e+00 180 146 119
1.242393e+00 1.279858e-01 -2.719700e+00 189 153 119
9.257848e-01 3.848446e-02 -2.862796e+00 181 147 129
-1.527687e+00 2.695004e-02 -2.917975e+00 245 210 189
-1.390374e+00 3.525971e-02 -2.904751e+00 226 196 172
-1.387419e+00 4.027909e-02 -2.907138e+00 201 167 145
-1.512914e+00 4.091495e-02 -2.912127e+00 199 163 141
-1.302841e+00 2.708618e-02 -2.931618e+00 223 195 174
1.190599e+00 1.223753e-01 -2.766432e+00 211 174 147
-1.478393e+00 5.273090e-02 -2.905722e+00 254 228 209
-1.464423e+00 5.896590e-02 -2.900680e+00 214 186 164
-1.432424e+00 6.055371e-02 -2.900915e+00 250 222 201
-1.521346e+00 5.759529e-02 -2.910511e+00 204 168 146
-1.308951e+00 4.670356e-02 -2.924969e+00 220 192 165
-1.308951e+00 4.670356e-02 -2.924969e+00 220 192 165
-1.369754e+00 6.249528e-02 -2.903384e+00 220 186 161
-1.348323e+00 6.063894e-02 -2.909887e+00 226 192 165
1.073222e+00 1.137080e-01 -2.813522e+00 255 244 239
-1.598306e+00 5.212101e-02 -2.932831e+00 235 194 166
-1.488018e+00 7.386788e-02 -2.901259e+00 185 158 143
-1.575885e+00 6.011299e-02 -2.923447e+00 200 165 143
1.208321e+00 1.605667e-01 -2.780330e+00 255 227 188
-1.387907e+00 9.563034e-02 -2.895753e+00 230 196 169
-1.538422e+00 9.306316e-02 -2.913069e+00 191 161 140
1.321911e+00 2.001702e-01 -2.744888e+00 250 212 176
-1.404477e+00 1.145647e-01 -2.885466e+00 222 188 161
-1.357401e+00 1.165300e-01 -2.887678e+00 196 162 134
-1.524904e+00 1.131343e-01 -2.902200e+00 226 209 193
-1.409345e+00 1.222238e-01 -2.891458e+00 206 171 140
8.802443e-01 1.664639e-01 -2.821289e+00 227 199 169
-1.310320e+00 1.181624e-01 -2.906560e+00 188 151 122
-1.383921e+00 1.329300e-01 -2.892010e+00 255 222 194
1.023420e+00 1.844427e-01 -2.818230e+00 255 244 210
-1.223830e+00 1.283110e-01 -2.913300e+00 254 223 194
9.604559e-01 1.957934e-01 -2.819344e+00 255 240 208
-1.563437e+00 1.336335e-01 -2.913152e+00 187 155 133
-1.587828e+00 1.289612e-01 -2.925528e+00 218 174 139
9.236954e-01 2.006330e-01 -2.826522e+00 232 200 166
-1.596524e+00 1.299367e-01 -2.928342e+00 253 209 170
-1.295101e+00 1.489372e-01 -2.906229e+00 227 185 145
-5.270720e-01 1.840379e-01 -2.854207e+00 201 185 161
-8.429465e-01 1.681108e-01 -2.879775e+00 192 177 158
-1.193396e+00 1.482285e-01 -2.912237e+00 235 208 178
-1.321267e+00 1.551271e-01 -2.905801e+00 207 164 122
-1.113689e+00 1.578523e-01 -2.906320e+00 200 169 138
-1.192691e+00 1.559260e-01 -2.910824e+00 186 148 111
-5.387698e-01 1.947728e-01 -2.851671e+00 205 191 164
-1.250425e+00 1.599664e-01 -2.913537e+00 216 174 133
-1.290171e+00 1.603414e-01 -2.915251e+00 190 143 97
1.674749e-01 2.307636e-01 -2.812918e+00 239 219 184
1.256210e+00 2.320863e-01 -2.827370e+00 235 194 150
1.056721e+00 2.170704e-01 -2.850052e+00 255 227 183
-1.532548e+00 1.681594e-01 -2.905353e+00 201 153 115
-1.575914e+00 1.607850e-01 -2.918577e+00 199 152 110
-3.447323e-01 2.204806e-01 -2.831989e+00 221 202 170
-9.900589e-01 1.808429e-01 -2.895215e+00 208 182 149
-1.540420e+00 1.746872e-01 -2.911172e+00 195 148 106
-1.085156e+00 1.857567e-01 -2.905702e+00 215 182 139
-1.153540e+00 1.840601e-01 -2.910675e+00 209 168 124
-1.109845e+00 1.845879e-01 -2.910875e+00 225 188 144
-1.416303e+00 1.773257e-01 -2.929833e+00 176 128 80
-1.350291e+00 1.797464e-01 -2.932583e+00 138 90 42
1.116561e+00 2.522613e-01 -2.860269e+00 204 171 145
-1.329932e+00 1.887255e-01 -2.934969e+00 234 186 137
-1.267877e+00 1.953685e-01 -2.933579e+00 242 194 148
-1.434029e+00 1.890219e-01 -2.943971e+00 169 122 77
-7.391690e-01 2.389303e-01 -2.874343e+00 239 219 182
-7.523477e-01 2.386647e-01 -2.874939e+00 234 214 179
-7.523477e-01 2.386647e-01 -2.874939e+00 234 214 179
-4.680697e-01 2.652501e-01 -2.849411e+00 245 228 198
-1.391610e+00 1.955808e-01 -2.955294e+00 201 152 111
-1.368695e+00 1.991295e-01 -2.955450e+00 155 104 57
-1.188660e+00 2.142662e-01 -2.936136e+00 171 124 82
-1.197303e+00 2.120324e-01 -2.944197e+00 241 197 152
-1.197303e+00 2.120324e-01 -2.944197e+00 241 197 152
-1.351237e+00 2.043485e-01 -2.958672e+00 163 111 60
-3.163493e-01 2.816600e-01 -2.848388e+00 248 229 199
-1.401956e+00 2.000522e-01 -2.968048e+00 117 71 32
-1.006242e+00 2.367087e-01 -2.914950e+00 255 234 194
-6.115866e-01 2.708294e-01 -2.868046e+00 250 231 201
-1.337824e+00 2.113676e-01 -2.967035e+00 184 132 84
-1.419627e+00 2.052600e-01 -2.978335e+00 233 182 127
-1.036448e+00 2.484404e-01 -2.931330e+00 232 204 165
-1.362401e+00 2.187827e-01 -2.982473e+00 247 196 141
-1.274012e+00 2.288733e-01 -2.969203e+00 254 208 158
-1.204236e+00 2.366116e-01 -2.960943e+00 230 187 136
-1.204236e+00 2.366116e-01 -2.960943e+00 230 187 136
-8.824216e-01 2.715842e-01 -2.912850e+00 189 156 115
-7.695017e-01 2.842653e-01 -2.900360e+00 231 210 173
-1.175804e+00 2.523189e-01 -2.960936e+00 223 180 127
-1.266160e+00 2.416592e-01 -2.979261e+00 157 114 71
-1.275577e+00 2.407894e-01 -2.981437e+00 196 150 100
-1.359543e+00 2.389465e-01 -2.990403e+00 255 214 165
-1.269617e+00 2.478575e-01 -2.986460e+00 168 124 81
-2.778347e-01 3.285857e-01 -2.883377e+00 196 176 139
1.200632e+00 3.336625e-01 -2.935294e+00 208 173 133
-1.379082e+00 2.541931e-01 -2.995087e+00 255 209 160
-1.392136e+00 2.682250e-01 -2.999758e+00 203 156 110
-1.003308e+00 3.039535e-01 -2.959243e+00 232 209 175
-8.787459e-01 3.153554e-01 -2.946252e+00 254 231 199
1.242070e+00 3.470126e-01 -3.011839e+00 174 139 102
-1.226938e+00 2.993753e-01 -2.994947e+00 247 204 155
-1.267365e+00 2.945947e-01 -3.002500e+00 134 91 50
-1.213584e+00 3.024323e-01 -2.995898e+00 210 166 117
-1.309265e+00 3.038617e-01 -3.007802e+00 204 158 109
-1.284138e+00 3.249673e-01 -3.015207e+00 203 160 109
-1.288524e+00 3.439939e-01 -3.042352e+00 194 153 111
-1.416662e+00 3.790531e-01 -3.029425e+00 152 103 70
-1.432802e+00 3.822297e-01 -3.032824e+00 124 72 33
-1.393475e+00 3.864369e-01 -3.045435e+00 130 92 56
-1.474437e+00 3.915136e-01 -3.051841e+00 197 149 103
-1.507628e+00 3.899175e-01 -3.090096e+00 143 107 78
1.259161e+00 1.726893e-02 -2.707848e+00 163 136 109
-1.361269e+00 -9.145399e-02 -2.946065e+00 211 180 162
-1.457841e+00 -6.818942e-02 -2.920523e+00 218 189 174
-1.499716e+00 -7.386927e-02 -2.936696e+00 142 117 113
-1.334944e+00 -8.096119e-02 -2.959489e+00 228 201 177
-1.495731e+00 -5.073767e-02 -2.930825e+00 203 175 164
-1.447323e+00 -3.260849e-02 -2.911855e+00 148 116 103
-1.507594e+00 -3.732454e-02 -2.929174e+00 207 171 150
1.259831e+00 8.919331e-02 -2.691459e+00 186 151 119
1.233225e+00 6.695628e-02 -2.726772e+00 151 116 86
-1.422122e+00 -2.113189e-02 -2.912751e+00 194 165 157
-1.371378e+00 -2.817145e-02 -2.926235e+00 213 186 172
1.238886e+00 8.627481e-02 -2.711879e+00 242 208 178
-1.422433e+00 -2.772682e-03 -2.908228e+00 228 200 189
-1.415057e+00 2.858740e-03 -2.909104e+00 206 178 168
-1.544890e+00 -1.045927e-02 -2.932380e+00 209 178 158
-1.377048e+00 1.034967e-02 -2.914795e+00 187 155 130
-1.540927e+00 5.423404e-03 -2.928036e+00 203 172 154
9.408591e-01 2.967332e-02 -2.860983e+00 232 198 167
1.190125e+00 9.265017e-02 -2.766405e+00 255 238 230
-1.369740e+00 2.107219e-02 -2.911335e+00 224 190 163
-1.368647e+00 2.790685e-02 -2.910271e+00 165 131 104
-1.368695e+00 2.738000e-02 -2.911011e+00 165 131 104
-1.370456e+00 3.707005e-02 -2.906502e+00 232 198 173
-1.317823e+00 2.546025e-02 -2.926467e+00 223 195 174
-1.409261e+00 4.790912e-02 -2.904418e+00 241 209 184
9.202454e-01 6.047643e-02 -2.868448e+00 255 228 190
-1.420053e+00 5.613046e-02 -2.900085e+00 169 141 117
1.194862e+00 1.324104e-01 -2.765322e+00 191 153 130
1.035736e+00 1.050980e-01 -2.830558e+00 211 202 203
1.351911e+00 2.006865e-01 -2.707327e+00 212 175 141
1.350884e+00 2.011309e-01 -2.706454e+00 212 175 141
-1.278954e+00 7.105046e-02 -2.921713e+00 189 164 141
-1.534691e+00 7.976841e-02 -2.912034e+00 218 182 156
-1.347714e+00 8.333891e-02 -2.905958e+00 158 124 98
-1.437585e+00 1.070656e-01 -2.891898e+00 252 218 190
1.188910e+00 1.730335e-01 -2.798370e+00 237 213 175
1.188910e+00 1.730335e-01 -2.798370e+00 237 213 175
-1.368370e+00 1.147663e-01 -2.895978e+00 227 192 164
1.205136e+00 1.783433e-01 -2.793813e+00 255 240 200
-1.362508e+00 1.274335e-01 -2.892733e+00 231 196 166
1.071631e+00 1.785622e-01 -2.820606e+00 255 254 234
-1.067514e+00 1.185889e-01 -2.912251e+00 223 207 184
-1.359783e+00 1.298550e-01 -2.896069e+00 187 151 119
-1.571113e+00 1.269958e-01 -2.913947e+00 192 157 132
9.320737e-01 1.905150e-01 -2.825423e+00 255 249 214
-1.209673e+00 1.374114e-01 -2.910145e+00 248 214 182
9.233833e-01 1.957347e-01 -2.832775e+00 229 201 165
1.224006e+00 2.116135e-01 -2.823984e+00 206 174 133
-1.271827e+00 1.492348e-01 -2.910228e+00 254 217 180
9.881782e-01 2.031247e-01 -2.840295e+00 228 187 145
-1.484922e+00 1.535635e-01 -2.905423e+00 215 171 132
-1.581732e+00 1.448326e-01 -2.922443e+00 204 159 123
-1.581540e+00 1.456079e-01 -2.921086e+00 204 159 123
-1.248496e+00 1.517620e-01 -2.912642e+00 255 221 183
-1.569248e+00 1.624078e-01 -2.910549e+00 255 215 179
-1.408844e+00 1.645017e-01 -2.910332e+00 224 186 139
-1.331209e+00 1.648477e-01 -2.914039e+00 173 127 84
-1.511283e+00 1.716934e-01 -2.907374e+00 155 110 77
-1.138822e+00 1.763288e-01 -2.910103e+00 228 190 143
1.100487e+00 2.319442e-01 -2.855486e+00 225 177 129
-6.471785e-01 2.178497e-01 -2.856265e+00 216 196 168
-1.499402e+00 1.794855e-01 -2.912409e+00 206 161 130
-1.413799e+00 1.735471e-01 -2.925737e+00 244 194 144
-1.117140e+00 1.870337e-01 -2.907314e+00 217 180 136
-1.038451e+00 1.938688e-01 -2.898720e+00 199 170 130
-1.511105e+00 1.855011e-01 -2.909159e+00 203 157 121
-1.144241e+00 1.893557e-01 -2.912188e+00 252 214 169
-1.427932e+00 1.784681e-01 -2.937534e+00 141 94 52
1.104261e+00 2.478142e-01 -2.864061e+00 235 193 153
1.104261e+00 2.478142e-01 -2.864061e+00 235 193 153
-1.121775e+00 1.971047e-01 -2.914638e+00 255 220 176
1.147955e+00 2.579601e-01 -2.856874e+00 241 209 186
-1.362842e+00 1.884507e-01 -2.938903e+00 232 182 131
-1.387845e+00 1.917928e-01 -2.947292e+00 219 168 120
-1.202887e+00 2.103721e-01 -2.937304e+00 200 156 109
1.119942e+00 2.688745e-01 -2.891371e+00 254 223 187
-4.788613e-01 2.705348e-01 -2.851736e+00 248 233 203
-1.404633e+00 2.001656e-01 -2.975972e+00 210 159 114
1.195643e+00 3.027308e-01 -2.874921e+00 192 143 97
-1.452220e+00 2.099335e-01 -2.970789e+00 232 188 141
1.199036e+00 3.066104e-01 -2.873127e+00 247 199 151
-1.428428e+00 2.091417e-01 -2.983129e+00 174 123 70
-1.339012e+00 2.215806e-01 -2.976173e+00 201 151 98
-1.450053e+00 2.196524e-01 -2.976574e+00 244 200 151
1.010566e+00 2.803656e-01 -2.958067e+00 255 230 194
-1.392204e+00 2.223290e-01 -2.990474e+00 146 102 67
-1.259272e+00 2.372680e-01 -2.971924e+00 194 147 101
-8.967547e-01 2.773967e-01 -2.921380e+00 235 212 179
-2.654889e-01 3.196032e-01 -2.869952e+00 232 208 174
1.087368e+00 2.974774e-01 -2.959042e+00 255 223 186
-8.824176e-01 2.824473e-01 -2.919128e+00 237 214 180
1.080635e+00 2.994564e-01 -2.959895e+00 214 179 139
-6.698801e-01 3.004892e-01 -2.897027e+00 218 199 166
-1.218576e+00 2.519031e-01 -2.968554e+00 198 152 103
1.105809e+00 3.038160e-01 -2.956055e+00 237 207 169
1.218698e+00 3.328124e-01 -2.911762e+00 188 153 113
-1.542929e+00 2.128032e-01 -3.040314e+00 242 205 178
-8.966083e-01 2.907493e-01 -2.924621e+00 212 189 155
-1.241893e+00 2.590428e-01 -2.978222e+00 178 132 84
-1.351519e+00 2.511507e-01 -2.991412e+00 224 176 127
-1.301359e+00 2.555680e-01 -2.990605e+00 222 179 128
-1.207240e+00 2.688101e-01 -2.973393e+00 246 200 150
-1.205586e+00 2.717500e-01 -2.976217e+00 154 108 58
-1.254324e+00 2.716043e-01 -2.983975e+00 235 189 138
-1.301192e+00 2.721730e-01 -2.994882e+00 217 172 123
-1.341641e+00 2.680568e-01 -3.002102e+00 201 153 105
1.114459e+00 3.346597e-01 -2.995028e+00 255 221 192
-1.403803e+00 2.836049e-01 -2.998670e+00 152 104 68
-1.077528e+00 3.045331e-01 -2.975931e+00 206 170 122
-1.366811e+00 2.901060e-01 -3.002959e+00 196 149 105
1.247059e+00 3.506082e-01 -3.016099e+00 221 194 165
-1.272226e+00 2.929621e-01 -3.005531e+00 212 167 125
-1.272226e+00 2.929621e-01 -3.005531e+00 212 167 125
-9.634203e-01 3.225863e-01 -2.973813e+00 237 211 178
-1.367943e+00 2.975538e-01 -3.007739e+00 209 162 120
-1.312835e+00 3.020621e-01 -3.004760e+00 242 194 146
-1.225521e+00 3.094334e-01 -2.999012e+00 213 171 121
-1.271049e+00 3.070735e-01 -3.001415e+00 247 199 150
-1.372564e+00 3.331918e-01 -3.013978e+00 152 110 74
-1.294334e+00 3.397885e-01 -3.038248e+00 201 158 113
-1.402616e+00 3.688323e-01 -3.030887e+00 103 57 23
-1.400499e+00 3.746265e-01 -3.029655e+00 177 128 95
1.350043e+00 -8.936288e-03 -2.652943e+00 223 205 205
1.299053e+00 4.746224e-02 -2.650559e+00 254 241 243
-1.444568e+00 -8.215668e-02 -2.922005e+00 194 173 168
-1.441166e+00 -5.574599e-02 -2.916206e+00 245 224 220
-1.333866e+00 -8.617420e-02 -2.957873e+00 196 177 157
-1.478299e+00 -5.451907e-02 -2.925214e+00 194 162 149
-1.413573e+00 -3.912398e-02 -2.912789e+00 230 206 196
-1.348138e+00 -5.346509e-02 -2.946649e+00 155 129 108
1.213797e+00 3.888311e-02 -2.767652e+00 197 169 148
-1.337358e+00 -5.156272e-02 -2.955873e+00 220 204 197
-1.340188e+00 -4.595760e-02 -2.950458e+00 193 176 169
-1.403729e+00 -1.392767e-02 -2.912412e+00 208 182 172
-1.567264e+00 -3.863556e-02 -2.953940e+00 235 204 184
-1.336858e+00 -1.165091e-02 -2.933648e+00 186 158 138
1.316551e+00 1.411747e-01 -2.662877e+00 212 187 165
1.182725e+00 7.157119e-02 -2.773989e+00 255 247 244
-1.377288e+00 5.236403e-03 -2.915180e+00 255 233 211
-1.356186e+00 1.473864e-02 -2.915655e+00 194 163 135
9.157927e-01 1.413398e-02 -2.881928e+00 209 195 195
9.444328e-01 3.087595e-02 -2.858046e+00 255 234 206
1.211969e+00 1.009297e-01 -2.754133e+00 231 193 171
1.184928e+00 9.432967e-02 -2.769201e+00 236 210 198
-1.561178e+00 1.320957e-02 -2.931614e+00 207 178 160
-1.362666e+00 3.620668e-02 -2.908927e+00 224 190 163
-1.470705e+00 4.486717e-02 -2.903820e+00 225 196 175
-1.347833e+00 3.717587e-02 -2.914573e+00 242 207 180
-1.429049e+00 4.950642e-02 -2.898441e+00 224 196 174
-1.293666e+00 2.441806e-02 -2.936947e+00 163 132 112
-1.374511e+00 4.807634e-02 -2.904757e+00 243 210 185
1.239182e+00 1.387769e-01 -2.743914e+00 210 170 138
-1.370978e+00 4.974898e-02 -2.906724e+00 215 180 158
-1.433726e+00 5.672636e-02 -2.898266e+00 193 165 144
-1.319128e+00 4.164226e-02 -2.920672e+00 208 176 151
-1.296956e+00 3.559989e-02 -2.930532e+00 207 177 153
-1.363905e+00 5.696222e-02 -2.905250e+00 147 111 87
-1.364005e+00 5.601226e-02 -2.906318e+00 147 111 87
-1.354651e+00 5.689583e-02 -2.907752e+00 140 105 83
-1.397788e+00 6.511938e-02 -2.900522e+00 224 192 167
9.765335e-01 9.366352e-02 -2.851480e+00 226 212 211
1.106138e+00 1.430284e-01 -2.795938e+00 220 204 179
1.108116e+00 1.419307e-01 -2.797826e+00 220 204 179
-1.300564e+00 7.967825e-02 -2.915491e+00 225 195 167
-1.363451e+00 9.140015e-02 -2.898174e+00 178 144 117
-1.468123e+00 9.593064e-02 -2.894441e+00 230 205 179
1.351525e+00 2.023876e-01 -2.717831e+00 212 177 139
1.102218e+00 1.496607e-01 -2.802204e+00 241 230 209
1.102218e+00 1.496607e-01 -2.802204e+00 241 230 209
-1.428847e+00 1.049552e-01 -2.889958e+00 233 199 171
-1.542774e+00 9.157812e-02 -2.915403e+00 216 185 167
-1.431362e+00 1.092115e-01 -2.891106e+00 237 202 173
1.279639e+00 1.938420e-01 -2.758610e+00 242 203 162
1.320615e+00 2.056524e-01 -2.748625e+00 226 188 151
-1.352131e+00 1.260693e-01 -2.896970e+00 195 159 127
-1.247643e+00 1.160564e-01 -2.917446e+00 200 174 147
-1.299072e+00 1.355106e-01 -2.908071e+00 187 146 113
-1.466922e+00 1.481598e-01 -2.900705e+00 255 228 193
-1.423555e+00 1.484580e-01 -2.901123e+00 235 202 169
-1.096692e+00 1.503601e-01 -2.901693e+00 251 224 196
-1.277434e+00 1.480643e-01 -2.911084e+00 207 167 131
-1.281118e+00 1.481264e-01 -2.911150e+00 223 183 148
-1.537958e+00 1.563962e-01 -2.903346e+00 231 195 173
1.074540e+00 2.085789e-01 -2.841414e+00 157 117 81
-1.160130e+00 1.627645e-01 -2.909185e+00 214 177 133
-1.595938e+00 1.450120e-01 -2.936323e+00 161 112 67
-1.583948e+00 1.527786e-01 -2.924995e+00 168 119 76
1.710811e-01 2.309962e-01 -2.813538e+00 237 217 181
-1.251811e+00 1.654926e-01 -2.912976e+00 242 197 155
-1.389512e+00 1.666005e-01 -2.913624e+00 203 153 104
-4.429764e-01 2.227878e-01 -2.837518e+00 241 222 190
-9.960070e-01 1.914490e-01 -2.894827e+00 252 224 187
-1.091013e+00 1.844013e-01 -2.906056e+00 254 222 182
4.641224e-02 2.473676e-01 -2.814642e+00 255 234 191
-1.400799e+00 1.740930e-01 -2.925980e+00 244 197 145
-1.397633e+00 1.762977e-01 -2.923496e+00 199 149 99
-1.396635e+00 1.754669e-01 -2.931208e+00 243 193 142
-1.076014e+00 1.953116e-01 -2.908779e+00 254 221 179
-1.312410e+00 1.820686e-01 -2.932800e+00 136 88 44
-1.237386e+00 1.920586e-01 -2.921342e+00 203 159 114
-1.330139e+00 1.812085e-01 -2.938626e+00 187 139 91
-1.321888e+00 1.847091e-01 -2.933545e+00 235 187 139
-1.436832e+00 1.817417e-01 -2.937977e+00 212 165 123
-1.218957e+00 1.930481e-01 -2.922412e+00 224 181 136
-1.493266e+00 1.899225e-01 -2.926404e+00 242 205 171
-8.383788e-01 2.222289e-01 -2.884541e+00 221 200 163
-1.494912e+00 1.910818e-01 -2.930301e+00 207 171 135
-5.177756e-01 2.501594e-01 -2.847284e+00 229 210 177
-1.275540e+00 1.952381e-01 -2.943782e+00 211 164 118
-1.378957e+00 1.932924e-01 -2.951206e+00 172 122 73
1.148839e+00 2.710459e-01 -2.870144e+00 226 189 158
-1.435746e+00 1.940132e-01 -2.952507e+00 160 112 66
-1.185671e+00 2.122508e-01 -2.934503e+00 247 203 157
1.185895e+00 2.846481e-01 -2.867147e+00 187 139 93
1.231080e+00 3.060994e-01 -2.860028e+00 217 178 135
-1.222867e+00 2.252022e-01 -2.950917e+00 201 153 105
-1.427940e+00 2.047358e-01 -2.983400e+00 225 175 123
1.123896e+00 2.832012e-01 -2.914869e+00 203 171 133
-1.453542e+00 2.123894e-01 -2.973304e+00 148 101 57
-2.659999e-01 3.063941e-01 -2.858096e+00 235 211 175
-1.344448e+00 2.250230e-01 -2.981935e+00 222 172 119
-1.264403e+00 2.393392e-01 -2.968602e+00 239 193 143
-1.052661e+00 2.621613e-01 -2.939024e+00 235 205 166
-1.058374e+00 2.619893e-01 -2.939638e+00 208 175 132
-1.296714e+00 2.373425e-01 -2.982701e+00 211 164 112
1.045487e+00 2.935597e-01 -2.962914e+00 221 184 142
-1.160012e+00 2.559521e-01 -2.959085e+00 198 157 106
1.087796e+00 3.025528e-01 -2.962356e+00 216 181 141
-1.336973e+00 2.413191e-01 -2.989678e+00 216 169 121
-1.212728e+00 2.573672e-01 -2.968243e+00 188 142 93
-1.216958e+00 2.561275e-01 -2.971823e+00 229 181 132
-8.048978e-01 2.947781e-01 -2.916940e+00 222 199 165
-9.007234e-01 2.887838e-01 -2.926654e+00 250 230 195
-1.534821e+00 2.182708e-01 -3.033897e+00 248 209 180
-1.187526e+00 2.735663e-01 -2.972598e+00 249 205 156
-9.206000e-01 3.005687e-01 -2.937030e+00 254 234 203
1.292630e+00 3.498004e-01 -2.964062e+00 227 206 181
-1.213991e+00 2.893693e-01 -2.989338e+00 232 191 141
-1.241080e+00 2.911986e-01 -2.988266e+00 216 170 121
-1.279454e+00 2.898124e-01 -2.996990e+00 223 178 130
-1.337506e+00 2.852177e-01 -3.003744e+00 210 163 117
-1.256892e+00 3.010817e-01 -2.999098e+00 225 179 130
-1.133714e+00 3.194703e-01 -3.004927e+00 250 220 181
-1.401256e+00 3.274439e-01 -3.005929e+00 175 135 106
-1.252109e+00 3.308237e-01 -3.023191e+00 217 175 127
-1.397986e+00 3.341447e-01 -3.007089e+00 172 134 106
-1.295673e+00 3.332819e-01 -3.021836e+00 199 155 107
-1.313560e+00 3.500716e-01 -3.027247e+00 157 113 71
-1.353418e+00 3.619005e-01 -3.033793e+00 209 166 125
-1.391056e+00 3.802428e-01 -3.035598e+00 147 108 69
-1.445253e+00 3.887319e-01 -3.035265e+00 118 70 30
-1.401998e+00 3.879919e-01 -3.043613e+00 116 72 37
-1.406820e+00 3.898555e-01 -3.047787e+00 102 56 23
-1.413818e+00 3.909428e-01 -3.049575e+00 121 75 39
-1.466503e+00 3.942249e-01 -3.050247e+00 119 74 31
1.293533e+00 -6.427469e-04 -2.669944e+00 207 191 192
-1.384605e+00 -6.668036e-02 -2.923562e+00 203 177 164
-1.428671e+00 -5.891370e-02 -2.918122e+00 232 211 206
-1.523769e+00 -4.099289e-02 -2.936666e+00 172 136 114
-1.312517e+00 -5.481455e-02 -2.971754e+00 137 109 88
1.195445e+00 6.262163e-02 -2.772601e+00 242 224 223
9.701569e-01 1.765184e-02 -2.863198e+00 253 233 217
-1.367624e+00 9.033609e-03 -2.916797e+00 222 187 161
-1.336582e+00 1.729299e-02 -2.921954e+00 202 170 145
-1.497671e+00 3.097268e-02 -2.908513e+00 140 102 79
9.153535e-01 4.916356e-02 -2.868931e+00 229 195 161
-1.324869e+00 3.788245e-02 -2.922117e+00 210 177 151
-1.501453e+00 5.446193e-02 -2.904621e+00 243 215 201
1.141734e+00 1.196160e-01 -2.777219e+00 236 212 188
8.988485e-01 6.021064e-02 -2.869494e+00 230 188 145
-1.406939e+00 5.704271e-02 -2.901846e+00 181 147 122
-1.362192e+00 5.986128e-02 -2.905691e+00 208 174 149
-1.315695e+00 5.248310e-02 -2.918885e+00 186 154 129
1.199429e+00 1.404349e-01 -2.768467e+00 254 219 193
1.001780e+00 9.539217e-02 -2.845971e+00 244 232 231
-1.334909e+00 7.753738e-02 -2.907418e+00 182 146 120
8.238981e-01 7.931807e-02 -2.894778e+00 208 194 185
8.265215e-01 8.163359e-02 -2.893565e+00 234 220 210
-1.276947e+00 8.985688e-02 -2.913977e+00 246 222 198
-1.420539e+00 1.127410e-01 -2.891349e+00 239 205 175
1.284027e+00 1.935359e-01 -2.764598e+00 209 167 125
-1.199214e+00 9.625859e-02 -2.922189e+00 213 197 184
-1.271355e+00 1.024650e-01 -2.914561e+00 216 189 162
1.362093e+00 2.145556e-01 -2.737480e+00 213 175 139
1.362093e+00 2.145556e-01 -2.737480e+00 213 175 139
-1.272653e+00 1.042849e-01 -2.916234e+00 243 212 183
1.050475e+00 1.797495e-01 -2.817302e+00 247 231 203
-1.212886e+00 1.342250e-01 -2.910394e+00 228 195 162
-1.536668e+00 1.382644e-01 -2.903921e+00 199 172 155
-1.080325e+00 1.491187e-01 -2.903846e+00 218 196 170
9.949326e-01 2.020811e-01 -2.833127e+00 251 216 175
-1.244770e+00 1.524899e-01 -2.912380e+00 208 164 125
-1.085924e+00 1.759361e-01 -2.905756e+00 233 203 168
-1.311344e+00 1.727351e-01 -2.921357e+00 201 154 108
-1.120040e+00 1.838752e-01 -2.908374e+00 251 214 170
-1.335715e+00 1.945064e-01 -2.943709e+00 216 172 123
-1.283256e+00 2.087653e-01 -2.949145e+00 249 202 150
-1.304963e+00 2.270315e-01 -2.969815e+00 219 169 118
-1.258186e+00 2.323390e-01 -2.964179e+00 242 196 147
5.842264e-01 2.844421e-01 -2.925411e+00 233 214 182
-1.395440e+00 2.220712e-01 -2.991420e+00 196 149 119
-1.296892e+00 2.434561e-01 -2.978937e+00 228 180 131
1.182212e+00 3.219936e-01 -2.934326e+00 214 179 141
-1.252606e+00 2.601832e-01 -2.981192e+00 231 187 140
-1.187932e+00 2.688091e-01 -2.971871e+00 247 204 153
1.076957e+00 3.185716e-01 -2.989415e+00 253 220 188
1.075320e+00 3.189805e-01 -3.010739e+00 228 197 167
-1.062506e+00 2.961174e-01 -2.967743e+00 232 198 153
-1.353833e+00 2.759504e-01 -3.001438e+00 214 166 120
-1.093811e+00 2.989647e-01 -2.970247e+00 210 172 125
-1.093811e+00 2.989647e-01 -2.970247e+00 210 172 125
1.190260e+00 3.419328e-01 -3.001964e+00 209 185 159
-1.249373e+00 2.880799e-01 -2.992471e+00 218 170 121
-1.088338e+00 3.152490e-01 -2.993369e+00 207 173 128
1.232513e+00 3.543785e-01 -3.037092e+00 28 22 18
-1.373742e+00 3.384266e-01 -3.018112e+00 199 156 122
-1.284122e+00 3.395762e-01 -3.039186e+00 151 114 69
-1.283935e+00 3.418574e-01 -3.040545e+00 187 148 105
-1.418044e+00 3.716090e-01 -3.022218e+00 133 85 47
-1.398435e+00 3.759336e-01 -3.031673e+00 110 60 27
1.321236e+00 1.623723e-01 -2.672861e+00 255 244 217
1.295934e+00 1.510285e-01 -2.683920e+00 236 200 166
-2.441057e-01 2.727620e-01 -2.834097e+00 248 228 193
1.223903e+00 1.535802e-01 -2.763602e+00 191 147 108
-3.056045e-01 2.653154e-01 -2.835020e+00 255 248 217
1.259845e+00 1.110866e-01 -2.693686e+00 240 206 169
1.228723e+00 1.374540e-01 -2.753145e+00 255 216 177
1.164257e+00 1.423626e-01 -2.776910e+00 255 247 217
1.242297e+00 1.540383e-01 -2.752346e+00 243 201 161
-1.300771e+00 2.943636e-01 -3.000365e+00 181 131 80
-1.331837e+00 -7.949266e-02 -2.960814e+00 166 129 92
1.197698e+00 1.439771e-01 -2.769425e+00 233 195 159
9.018885e-01 1.671035e-01 -2.819329e+00 251 219 182
-6.856184e-01 2.248825e-01 -2.862742e+00 230 208 171
-5.943107e-01 2.365299e-01 -2.854396e+00 235 213 176
-5.419104e-01 2.602187e-01 -2.856371e+00 224 204 169
-1.195772e+00 2.875577e-01 -2.981030e+00 212 165 113
1.172742e+00 1.317404e-01 -2.768414e+00 249 213 180
5.029794e-01 2.415753e-01 -2.829692e+00 242 231 203
-4.841855e-01 2.509170e-01 -2.846885e+00 228 209 177
-1.433857e+00 2.368775e-01 -2.982634e+00 230 180 129
-1.540795e+00 4.120239e-02 -2.918271e+00 199 160 121
-1.451392e+00 1.076678e-01 -2.893607e+00 255 225 175
1.238566e+00 4.345349e-02 -2.715637e+00 254 220 182
1.307997e+00 2.291136e-01 -2.773749e+00 252 214 177
-1.448906e+00 8.645790e-03 -2.914666e+00 212 178 162
-1.530893e+00 2.220706e-01 -3.035254e+00 229 186 153
-1.513865e+00 1.379080e-01 -2.900911e+00 255 248 232
-9.633014e-01 1.909570e-01 -2.889895e+00 255 247 225
-9.330133e-01 2.347685e-01 -2.908445e+00 255 249 220
-1.307896e+00 -7.503876e-02 -2.982392e+00 11 11 10
-1.293567e+00 -3.140625e-02 -2.962913e+00 233 213 208
-1.342879e+00 2.015215e-02 -2.923269e+00 183 149 129
-1.342879e+00 2.015215e-02 -2.923269e+00 183 149 129
-1.503534e+00 7.702366e-02 -2.902554e+00 255 252 237
-1.343157e+00 1.193457e-01 -2.900429e+00 248 216 193
-1.276825e+00 1.337531e-01 -2.913520e+00 237 207 183
-1.610664e+00 1.457958e-01 -2.953725e+00 19 20 21
-1.115530e+00 2.016832e-01 -2.921804e+00 235 200 160
-3.846938e-01 2.856189e-01 -2.849204e+00 255 251 221
-2.838107e-01 3.256552e-01 -2.883311e+00 200 176 140
-1.423366e+00 -4.354081e-02 -2.915337e+00 255 249 246
-1.498245e+00 3.818739e-02 -2.911734e+00 152 112 85
-1.355893e+00 3.442616e-02 -2.914955e+00 255 228 207
-1.529375e+00 6.393652e-02 -2.909297e+00 200 164 140
-1.354738e+00 6.203234e-02 -2.904899e+00 190 159 139
-1.408773e+00 9.920017e-02 -2.892968e+00 215 184 163
-1.546835e+00 1.411299e-01 -2.908892e+00 244 217 197
-1.181771e+00 1.387551e-01 -2.911174e+00 250 236 227
-1.181771e+00 1.387551e-01 -2.911174e+00 250 236 227
-1.455171e+00 1.987160e-01 -2.956568e+00 130 85 44
-9.208656e-01 2.229208e-01 -2.894930e+00 242 224 194
1.320971e+00 1.949404e-01 -2.722131e+00 254 217 182
-4.573072e-01 2.669269e-01 -2.848502e+00 239 222 193
-7.596990e-01 2.759001e-01 -2.899476e+00 243 227 193
1.329375e+00 2.081498e-01 -2.743033e+00 208 170 131
-1.028922e+00 3.084292e-01 -2.957740e+00 254 229 197
-1.415665e+00 3.290066e-01 -3.002634e+00 213 173 148
1.173633e+00 3.345747e-01 -2.943041e+00 229 195 157
-1.498222e+00 4.166176e-03 -2.916424e+00 237 200 179
-1.317968e+00 -2.908057e-02 -2.956950e+00 172 154 150
-1.425306e+00 4.391500e-02 -2.904513e+00 255 232 211
-1.280676e+00 -3.364009e-03 -2.966137e+00 173 156 152
-1.338244e+00 3.460029e-02 -2.919196e+00 198 162 140
-1.594301e+00 1.410699e-01 -2.928928e+00 242 197 166
-1.374354e+00 1.625032e-01 -2.895649e+00 243 200 157
-1.132282e+00 1.612460e-01 -2.906434e+00 255 235 212
-1.007200e+00 1.801301e-01 -2.890724e+00 232 215 200
-1.177486e+00 2.612059e-01 -2.962330e+00 255 214 167
1.275082e+00 2.093898e-01 -2.791324e+00 247 204 159
-2.126177e-01 2.940113e-01 -2.843756e+00 220 195 157
-9.875787e-02 2.965260e-01 -2.847503e+00 255 238 204
-1.285908e+00 3.127348e-01 -3.006257e+00 121 79 39
-3.047033e-02 3.300797e-01 -2.859176e+00 216 194 157
1.216679e+00 3.457546e-01 -3.049863e+00 197 182 167
-1.385585e+00 -4.006268e-02 -2.920072e+00 160 135 130
-1.567022e+00 1.867089e-02 -2.929847e+00 244 215 193
-1.288368e+00 -3.213428e-02 -2.982038e+00 17 12 6
-1.593715e+00 1.991102e-02 -2.935448e+00 255 235 212
-1.287414e+00 -2.127643e-02 -2.975602e+00 253 237 232
-1.563284e+00 4.104768e-02 -2.925030e+00 216 184 159
-1.269860e+00 5.064800e-03 -2.965278e+00 173 159 158
-1.379840e+00 6.968707e-02 -2.903739e+00 193 166 144
-1.613175e+00 8.504895e-02 -2.935148e+00 255 215 176
-1.353925e+00 1.334674e-01 -2.900463e+00 242 208 181
1.267607e+00 8.256499e-02 -2.679460e+00 185 147 110
-1.157508e+00 1.590654e-01 -2.908020e+00 255 237 218
-1.294674e+00 1.660319e-01 -2.911821e+00 237 192 151
-1.155740e+00 1.664539e-01 -2.910477e+00 214 176 143
-8.035975e-01 1.645536e-01 -2.880061e+00 238 225 216
-1.152869e+00 1.771940e-01 -2.910022e+00 255 231 196
-1.134346e+00 1.749927e-01 -2.914825e+00 255 234 197
-1.146532e+00 1.796467e-01 -2.908937e+00 255 229 192
-7.849979e-01 2.361449e-01 -2.876780e+00 232 222 188
-3.754641e-01 2.722885e-01 -2.843723e+00 230 213 185
1.232495e+00 1.917097e-01 -2.801938e+00 229 191 147
1.237691e+00 1.958872e-01 -2.806309e+00 255 228 184
-8.410313e-02 3.084100e-01 -2.847276e+00 253 230 196
1.071651e+00 2.224136e-01 -2.854921e+00 215 171 124
-1.377553e+00 -3.085023e-02 -2.921594e+00 223 200 196
-1.565144e+00 -9.062690e-04 -2.937229e+00 255 236 217
-1.419501e+00 1.498549e-02 -2.911138e+00 171 138 121
-1.586722e+00 1.730734e-02 -2.935728e+00 119 83 59
-1.549672e+00 3.275909e-02 -2.923630e+00 255 231 208
-1.349684e+00 2.350789e-02 -2.918483e+00 161 129 106
-1.413950e+00 3.589705e-02 -2.905377e+00 255 232 208
-1.398415e+00 4.573929e-02 -2.904973e+00 255 231 210
-1.536708e+00 6.759891e-02 -2.909800e+00 209 175 150
-1.582156e+00 6.530691e-02 -2.919915e+00 235 199 173
-1.567735e+00 8.222188e-02 -2.915026e+00 255 234 210
-1.354185e+00 9.237670e-02 -2.900875e+00 225 194 173
-1.226224e+00 7.382152e-02 -2.931197e+00 246 239 247
-1.409713e+00 1.149181e-01 -2.892552e+00 255 233 207
-1.566382e+00 1.231527e-01 -2.913808e+00 251 218 198
-1.566382e+00 1.231527e-01 -2.913808e+00 251 218 198
-1.215190e+00 1.052540e-01 -2.921530e+00 255 246 247
1.401128e+00 8.861525e-02 -2.634604e+00 248 217 200
-1.155260e+00 1.448469e-01 -2.909751e+00 254 239 234
-1.000825e+00 1.863558e-01 -2.894801e+00 255 240 215
-1.159960e+00 1.947991e-01 -2.913773e+00 253 210 171
-1.166206e+00 1.985639e-01 -2.920476e+00 213 169 130
-1.277793e+00 2.106013e-01 -2.951718e+00 212 164 116
-1.243065e+00 2.390133e-01 -2.965837e+00 217 170 126
-4.467257e-01 2.620491e-01 -2.847916e+00 255 246 216
-4.678185e-01 2.653946e-01 -2.849475e+00 255 247 219
-4.729987e-01 2.690459e-01 -2.852801e+00 238 221 191
-4.729987e-01 2.690459e-01 -2.852801e+00 238 221 191
-3.320618e-01 2.770936e-01 -2.838990e+00 252 235 207
-4.168468e-01 2.797364e-01 -2.848490e+00 237 220 190
1.280361e+00 1.978921e-01 -2.784118e+00 251 210 166
-1.420141e-01 2.784338e-01 -2.828146e+00 250 227 191
-1.320197e+00 2.865687e-01 -3.000730e+00 185 140 98
6.096188e-02 2.798827e-01 -2.829035e+00 225 205 170
-1.330131e+00 3.264644e-01 -3.012065e+00 194 151 109
1.299582e+00 2.306143e-01 -2.829103e+00 211 172 129
1.222453e+00 2.734607e-01 -2.854618e+00 255 222 174
-1.450766e+00 3.884845e-01 -3.032715e+00 255 216 177
-1.464848e+00 3.977484e-01 -3.050490e+00 108 63 25
1.052616e+00 3.022220e-01 -2.986870e+00 201 167 129
1.052616e+00 3.022220e-01 -2.986870e+00 201 167 129
1.245129e+00 3.497984e-01 -3.020916e+00 211 190 162
-1.448111e+00 -3.486052e-02 -2.914239e+00 164 134 122
-1.387735e+00 -3.445167e-02 -2.920970e+00 243 222 217
-1.335290e+00 -3.869108e-02 -2.949031e+00 255 248 255
-1.559748e+00 5.304025e-03 -2.935095e+00 217 190 171
-1.452759e+00 1.779699e-02 -2.904040e+00 254 221 202
-1.500922e+00 1.599999e-02 -2.914916e+00 180 143 122
-1.500922e+00 1.599999e-02 -2.914916e+00 180 143 122
-1.360055e+00 1.483904e-02 -2.917817e+00 246 216 194
-1.481459e+00 3.143010e-02 -2.910077e+00 210 177 158
-1.369241e+00 2.569247e-02 -2.913866e+00 182 149 130
-1.337823e+00 2.099666e-02 -2.922415e+00 144 114 95
-1.300994e+00 7.817892e-03 -2.944941e+00 238 219 215
-1.540972e+00 4.694259e-02 -2.918254e+00 236 204 183
-1.395335e+00 5.364806e-02 -2.903800e+00 192 164 142
-1.432793e+00 6.016620e-02 -2.901408e+00 255 241 221
-1.329709e+00 6.164936e-02 -2.913967e+00 200 171 150
-1.346029e+00 8.637570e-02 -2.902385e+00 149 118 95
-1.448561e+00 1.004839e-01 -2.893701e+00 165 131 106
-1.404073e+00 9.891905e-02 -2.892739e+00 202 170 148
-1.578919e+00 1.000355e-01 -2.916940e+00 239 205 179
-1.266613e+00 7.945712e-02 -2.920109e+00 234 217 207
-1.540621e+00 1.372909e-01 -2.905816e+00 253 224 204
-1.365626e+00 1.378525e-01 -2.899902e+00 174 137 110
-1.365626e+00 1.378525e-01 -2.899902e+00 174 137 110
1.404699e+00 9.406154e-02 -2.636804e+00 186 159 146
-1.278866e+00 1.304103e-01 -2.911314e+00 255 231 210
-1.289661e+00 1.382875e-01 -2.915556e+00 211 174 147
-1.531929e+00 1.691728e-01 -2.903637e+00 204 156 118
-1.231064e+00 1.415870e-01 -2.918505e+00 209 172 145
-1.203955e+00 1.538129e-01 -2.912686e+00 255 239 212
-1.507611e+00 1.809929e-01 -2.910628e+00 145 101 66
-1.173381e+00 1.741827e-01 -2.910554e+00 198 155 120
-1.106803e+00 1.825446e-01 -2.905360e+00 255 242 211
-7.534301e-01 1.796296e-01 -2.871507e+00 235 223 207
-1.330968e+00 1.874559e-01 -2.936435e+00 238 190 144
-1.283426e+00 1.883394e-01 -2.929187e+00 236 189 145
-1.107815e+00 1.887387e-01 -2.912245e+00 255 246 210
-8.985875e-01 1.901438e-01 -2.882701e+00 234 220 207
1.318942e+00 1.782784e-01 -2.696838e+00 255 228 190
-1.353780e+00 2.178594e-01 -2.984479e+00 244 194 145
-1.028754e+00 2.345656e-01 -2.918532e+00 255 247 214
1.207846e+00 1.618833e-01 -2.779680e+00 255 229 189
-1.308893e+00 2.399216e-01 -2.982977e+00 216 168 120
-9.032403e-01 2.560399e-01 -2.905242e+00 238 212 177
-1.223829e+00 2.542387e-01 -2.972987e+00 249 205 160
1.230528e+00 1.874058e-01 -2.798814e+00 255 225 181
2.474819e-02 2.644773e-01 -2.827527e+00 251 230 193
-4.251851e-01 2.867883e-01 -2.856191e+00 255 240 210
-1.328186e+00 3.017543e-01 -3.003793e+00 254 212 170
-1.237075e+00 3.000099e-01 -2.997062e+00 243 200 155
9.934821e-01 2.092688e-01 -2.862141e+00 255 229 187
-1.275082e+00 3.159257e-01 -3.011323e+00 190 147 104
-1.283177e+00 3.251159e-01 -3.014142e+00 208 163 119
-1.371032e+00 3.498925e-01 -3.020427e+00 216 179 153
1.813390e-01 3.156874e-01 -2.868453e+00 203 182 147
8.603655e-01 2.568189e-01 -2.911944e+00 248 228 195
-1.416618e+00 3.786441e-01 -3.030182e+00 153 104 71
1.063275e+00 3.026056e-01 -2.981942e+00 250 216 171
1.293193e+00 3.217355e-01 -2.909017e+00 255 227 190
1.195219e+00 3.326281e-01 -2.948801e+00 209 176 141
-1.364915e+00 -5.127754e-02 -2.930197e+00 219 199 198
-1.334644e+00 -5.662647e-02 -2.959753e+00 188 171 168
-1.459510e+00 -1.529177e-02 -2.909399e+00 213 182 163
-1.586643e+00 -2.301586e-02 -2.951469e+00 190 160 143
-1.457916e+00 -8.275638e-04 -2.908111e+00 221 188 169
-1.327270e+00 -2.711758e-02 -2.949576e+00 224 210 210
-1.376490e+00 5.816595e-03 -2.914913e+00 255 242 223
-1.582974e+00 6.446637e-03 -2.937200e+00 235 200 180
-1.346510e+00 1.766588e-02 -2.922089e+00 150 119 98
-1.569863e+00 3.329900e-02 -2.925589e+00 252 221 198
-1.541647e+00 4.323208e-02 -2.916327e+00 213 182 160
1.326377e+00 2.695444e-02 -2.644211e+00 189 163 150
-1.321072e+00 5.358828e-02 -2.914197e+00 178 149 125
-1.573286e+00 7.580845e-02 -2.916130e+00 217 184 161
-1.538749e+00 9.163365e-02 -2.913314e+00 198 165 139
-1.421612e+00 9.463341e-02 -2.894908e+00 216 184 159
-1.546077e+00 1.124855e-01 -2.909673e+00 239 211 191
-1.521354e+00 1.475751e-01 -2.900937e+00 213 182 164
-1.286541e+00 1.270656e-01 -2.906679e+00 243 211 188
-1.349715e+00 1.370687e-01 -2.898601e+00 242 207 179
-1.372093e+00 1.409818e-01 -2.899190e+00 194 154 124
-1.277374e+00 1.343408e-01 -2.912891e+00 234 204 180
-1.533377e+00 1.616468e-01 -2.905953e+00 162 113 79
-1.503508e+00 1.649331e-01 -2.904953e+00 196 155 127
-1.428058e+00 1.792997e-01 -2.936687e+00 144 95 52
-1.195248e+00 1.761321e-01 -2.913404e+00 252 209 174
-1.488616e+00 1.915764e-01 -2.931568e+00 215 178 149
-1.213858e+00 1.864851e-01 -2.913756e+00 208 164 127
-1.213858e+00 1.864851e-01 -2.913756e+00 208 164 127
-9.965334e-01 1.818931e-01 -2.896442e+00 196 176 152
-1.451720e+00 1.875025e-01 -2.948003e+00 237 193 150
-1.451720e+00 1.875025e-01 -2.948003e+00 237 193 150
-1.111779e+00 1.845560e-01 -2.911056e+00 218 193 160
-1.116687e+00 1.856038e-01 -2.909186e+00 223 194 162
-1.155244e+00 1.992746e-01 -2.914992e+00 206 163 121
1.245882e+00 1.273738e-01 -2.736103e+00 158 119 88
-1.367960e+00 1.994770e-01 -2.954968e+00 153 103 54
-1.149670e+00 2.030661e-01 -2.922526e+00 244 205 166
-1.214970e+00 2.092349e-01 -2.932544e+00 249 204 163
-1.211218e+00 2.123395e-01 -2.936092e+00 214 169 128
-1.215627e+00 2.126174e-01 -2.942579e+00 255 215 174
-1.293502e+00 2.318543e-01 -2.974592e+00 209 161 113
-1.062013e+00 2.412846e-01 -2.929163e+00 237 211 176
-3.347332e-01 2.414345e-01 -2.830412e+00 233 217 191
1.212631e+00 1.613277e-01 -2.779887e+00 224 182 144
-1.324252e+00 2.415012e-01 -2.987072e+00 255 219 170
-1.405184e+00 2.458929e-01 -2.991399e+00 245 198 168
1.414677e+00 1.966926e-01 -2.707175e+00 131 101 75
-8.893000e-01 2.618530e-01 -2.905261e+00 255 235 198
-1.218737e+00 2.518729e-01 -2.969317e+00 189 145 100
-1.059211e+00 2.617423e-01 -2.939996e+00 215 187 148
1.374252e+00 2.055515e-01 -2.710960e+00 254 216 179
-4.626980e-01 2.668527e-01 -2.850772e+00 233 216 188
1.199386e+00 1.793741e-01 -2.802445e+00 238 205 162
-1.207030e+00 2.688012e-01 -2.973268e+00 252 210 165
-1.328084e+00 2.653033e-01 -2.997026e+00 255 227 185
8.942655e-01 1.949371e-01 -2.844457e+00 255 231 190
-4.157269e-01 2.879935e-01 -2.854583e+00 254 236 206
1.241378e+00 1.961251e-01 -2.801232e+00 209 166 123
-1.207032e+00 2.944205e-01 -2.987669e+00 224 183 139
1.357549e+00 2.205714e-01 -2.765477e+00 242 207 169
-1.327224e+00 2.975476e-01 -3.003236e+00 227 184 141
1.375378e+00 2.224274e-01 -2.767972e+00 217 181 143
-1.309276e+00 3.049169e-01 -3.005585e+00 201 158 113
-2.527885e-01 3.103407e-01 -2.858395e+00 218 194 158
-1.375095e+00 3.177689e-01 -3.013634e+00 163 121 96
7.148827e-01 2.432663e-01 -2.869246e+00 219 196 163
-2.265472e-01 3.162885e-01 -2.863409e+00 243 217 180
1.139234e+00 2.433730e-01 -2.847772e+00 254 220 181
2.461334e-01 3.109863e-01 -2.872351e+00 242 220 183
1.173379e+00 2.717795e-01 -2.858311e+00 243 199 160
-1.430878e+00 3.823721e-01 -3.030218e+00 116 67 31
-1.320955e+00 3.566527e-01 -3.069345e+00 90 61 31
1.199361e+00 3.074200e-01 -2.874438e+00 255 211 162
-1.361067e+00 -9.251855e-02 -2.947037e+00 220 195 183
-1.317604e+00 -5.931612e-02 -2.968882e+00 176 156 148
-1.544754e+00 -1.470547e-02 -2.934535e+00 216 184 165
-1.449831e+00 2.257030e-02 -2.904202e+00 199 164 145
-1.383778e+00 2.893134e-02 -2.911402e+00 192 164 143
-1.392877e+00 4.494144e-02 -2.905369e+00 239 208 188
-1.347586e+00 3.736752e-02 -2.914507e+00 252 224 203
-1.334446e+00 7.742252e-02 -2.908353e+00 191 160 141
-1.557022e+00 1.119697e-01 -2.913165e+00 232 204 183
-1.312842e+00 1.053486e-01 -2.908239e+00 246 220 203
-1.322722e+00 1.194761e-01 -2.905812e+00 254 222 201
-1.587488e+00 1.300394e-01 -2.922646e+00 221 182 151
-1.534138e+00 1.456446e-01 -2.904701e+00 221 191 172
-1.311160e+00 1.308005e-01 -2.907370e+00 248 212 186
-1.520245e+00 1.503434e-01 -2.903935e+00 244 211 192
-1.337651e+00 1.512118e-01 -2.905767e+00 252 213 180
-1.520269e+00 1.736138e-01 -2.908846e+00 198 150 114
-1.070783e+00 1.589962e-01 -2.902321e+00 216 200 184
-7.912280e-01 1.613591e-01 -2.883440e+00 254 242 230
-1.463419e+00 1.855020e-01 -2.938839e+00 168 130 94
1.252096e+00 1.430044e-01 -2.727682e+00 203 164 131
-1.057436e+00 2.142834e-01 -2.915839e+00 242 218 182
-8.387689e-01 2.229050e-01 -2.883593e+00 223 212 182
-8.387689e-01 2.229050e-01 -2.883593e+00 223 212 182
-1.171790e+00 2.190994e-01 -2.936772e+00 255 218 173
-1.323612e+00 2.226036e-01 -2.974177e+00 216 168 120
-1.209005e+00 2.348893e-01 -2.960137e+00 223 180 132
1.386286e+00 1.985489e-01 -2.701050e+00 250 219 188
-1.434193e+00 2.530868e-01 -2.987596e+00 155 105 68
-1.207233e+00 2.582710e-01 -2.968809e+00 216 172 127
-1.316686e+00 2.699789e-01 -2.993281e+00 229 189 148
-1.131882e+00 2.788665e-01 -2.962781e+00 255 235 193
9.635886e-01 1.985407e-01 -2.834439e+00 253 221 181
-1.199636e+00 2.842859e-01 -2.979525e+00 252 212 168
-9.909883e-02 2.826704e-01 -2.831954e+00 253 229 194
-1.013018e+00 2.907609e-01 -2.948739e+00 242 225 197
-7.513096e-01 2.960841e-01 -2.906433e+00 238 223 192
6.147282e-02 2.842950e-01 -2.830208e+00 249 226 192
-1.236394e+00 3.038338e-01 -2.999546e+00 213 170 125
-2.122388e-01 3.073400e-01 -2.854196e+00 252 232 192
6.454573e-02 3.033126e-01 -2.847124e+00 221 198 164
-1.361173e+00 3.283809e-01 -3.018221e+00 227 184 150
-3.749544e-01 3.239472e-01 -2.886950e+00 251 226 186
-1.336022e+00 3.312574e-01 -3.016793e+00 241 196 158
-1.311296e+00 3.346654e-01 -3.018658e+00 173 128 86
-1.338832e+00 3.416978e-01 -3.017208e+00 207 164 129
-1.350947e+00 3.613849e-01 -3.035799e+00 161 121 87
1.061910e+00 2.544836e-01 -2.900487e+00 255 234 200
1.099408e+00 2.646056e-01 -2.894546e+00 254 224 182
1.167983e+00 3.330947e-01 -2.958642e+00 255 222 184
1.138077e+00 3.321833e-01 -2.974085e+00 228 193 155
1.070358e+00 3.451897e-02 -2.821793e+00 11 12 14
-1.476773e+00 3.917240e-01 -3.020995e+00 217 167 130
-1.325752e+00 3.478916e-01 -3.096084e+00 138 111 80
-1.050228e+00 3.270761e-01 -2.997147e+00 206 180 144
1.398288e+00 3.986192e-02 -2.633201e+00 255 241 245
-1.384353e+00 1.223988e-01 -2.896158e+00 254 221 187
-1.558306e+00 1.876748e-01 -2.955032e+00 200 164 137
-1.341837e+00 -5.696923e-02 -2.939381e+00 154 122 100
1.401560e+00 7.377404e-02 -2.630040e+00 208 171 149
1.401560e+00 7.377404e-02 -2.630040e+00 208 171 149
1.027981e+00 1.634110e-01 -2.804909e+00 255 255 245
1.373747e+00 1.977422e-01 -2.714421e+00 255 220 183
1.379794e+00 2.218669e-01 -2.756226e+00 180 139 98
-1.477096e+00 -8.218610e-02 -2.930159e+00 255 251 246
-1.144064e+00 8.898528e-02 -2.933177e+00 226 210 194
9.938468e-01 6.469350e-03 -2.860486e+00 25 24 22
1.126118e+00 2.582949e-01 -2.859239e+00 255 231 209
1.235528e+00 3.493902e-01 -3.020612e+00 229 200 164
-6.150800e-01 2.593294e-01 -2.864505e+00 255 241 209
-1.327137e+00 3.265294e-01 -3.017978e+00 211 163 115
1.051257e+00 2.859046e-01 -2.957991e+00 215 178 137
1.197585e+00 3.391774e-01 -2.981443e+00 177 148 114
1.403106e+00 6.010608e-02 -2.629467e+00 208 167 137
-1.562346e+00 1.648639e-01 -2.917686e+00 174 125 82
-1.135692e+00 1.481028e-01 -2.910793e+00 224 195 165
1.290565e+00 1.313671e-01 -2.677718e+00 238 211 181
1.114459e+00 2.096864e-01 -2.831388e+00 255 244 213
-8.819361e-01 3.022593e-01 -2.935059e+00 241 218 186
-1.439427e+00 3.780176e-01 -3.018558e+00 166 114 74
1.057843e+00 3.107711e-01 -3.013679e+00 225 199 164
-1.507587e+00 2.464073e-02 -2.908087e+00 199 159 135
-1.538754e+00 3.864842e-02 -2.922685e+00 199 164 142
1.262355e+00 1.261854e-02 -2.686753e+00 219 193 169
-1.274853e+00 1.200507e-01 -2.914633e+00 253 218 180
1.256191e+00 6.369527e-02 -2.691399e+00 226 190 156
1.200798e+00 5.577314e-02 -2.772186e+00 198 181 173
-1.193004e+00 2.222009e-01 -2.941974e+00 218 170 122
1.185495e+00 1.541556e-01 -2.777027e+00 255 241 211
-1.446228e+00 2.579958e-01 -2.990066e+00 203 151 112
-7.329241e-01 2.783717e-01 -2.891464e+00 236 220 184
1.124152e+00 1.941309e-01 -2.826516e+00 255 248 218
9.278344e-01 2.061111e-01 -2.840613e+00 218 186 147
-1.303548e+00 2.822317e-01 -2.998443e+00 200 150 102
-1.229619e+00 2.962629e-01 -2.991014e+00 214 166 117
1.178179e+00 2.149240e-01 -2.843798e+00 136 97 58
-1.136975e+00 3.104016e-01 -2.993609e+00 221 188 147
1.257457e+00 3.204813e-01 -2.878487e+00 255 241 196
1.210400e+00 3.296998e-01 -2.887975e+00 210 173 129
-1.463458e+00 -5.136824e-02 -2.920373e+00 233 201 181
-1.375280e+00 -1.388237e-03 -2.920176e+00 191 156 136
1.408259e+00 -3.915984e-02 -2.671019e+00 119 88 77
-1.620786e+00 7.079561e-02 -2.941060e+00 212 165 126
-1.354643e+00 9.175702e-02 -2.901846e+00 226 190 158
1.257763e+00 2.445467e-02 -2.689123e+00 210 184 157
-1.297738e+00 9.559838e-02 -2.916228e+00 244 209 178
1.275454e+00 7.873120e-02 -2.657857e+00 255 250 230
1.307951e+00 7.900478e-02 -2.666258e+00 233 217 201
-1.390844e+00 1.608220e-01 -2.908928e+00 215 165 114
1.298496e+00 1.123640e-01 -2.657817e+00 255 250 232
-1.456007e+00 1.713971e-01 -2.926290e+00 237 193 148
-1.546407e+00 1.794568e-01 -2.935758e+00 144 100 62
1.255743e+00 1.094364e-01 -2.697229e+00 255 232 204
-8.430400e-01 1.680120e-01 -2.880469e+00 198 181 161
-1.508740e+00 1.885286e-01 -2.945866e+00 160 120 84
-1.065281e+00 2.135736e-01 -2.910623e+00 255 239 196
1.204414e+00 1.376500e-01 -2.768859e+00 255 219 195
1.204414e+00 1.376500e-01 -2.768859e+00 255 219 195
1.287482e+00 1.796936e-01 -2.719933e+00 255 223 184
1.240229e+00 1.569653e-01 -2.762862e+00 255 230 194
-5.684691e-01 2.427647e-01 -2.853873e+00 255 251 217
-1.161940e+00 2.368545e-01 -2.940921e+00 239 202 150
-3.544243e-01 2.412235e-01 -2.834564e+00 220 204 171
-7.714005e-01 2.881316e-01 -2.905161e+00 255 251 216
1.014919e+00 1.996715e-01 -2.841466e+00 201 163 118
-1.299358e+00 2.826325e-01 -2.997053e+00 194 146 97
-9.531033e-01 2.969979e-01 -2.931294e+00 255 250 216
-1.271212e+00 2.915537e-01 -2.994704e+00 250 203 150
8.088614e-01 2.381911e-01 -2.877948e+00 255 249 216
1.100008e+00 2.330605e-01 -2.862236e+00 245 199 147
1.077241e+00 2.366389e-01 -2.873456e+00 255 242 197
-1.280445e+00 3.341939e-01 -3.024172e+00 226 180 131
1.221346e+00 2.849564e-01 -2.854288e+00 221 178 135
-1.432165e+00 3.728457e-01 -3.023194e+00 177 130 88
-1.448812e+00 3.787899e-01 -3.027475e+00 185 132 90
1.325078e+00 3.001936e-01 -2.928975e+00 195 157 117
1.283893e+00 3.377766e-01 -2.914568e+00 213 183 149
1.097494e+00 3.220945e-01 -3.031967e+00 223 197 170
1.175795e+00 3.382035e-01 -2.996297e+00 117 92 64
1.242290e+00 3.405019e-01 -2.991262e+00 155 122 85
-1.473380e+00 -4.226202e-02 -2.921422e+00 237 201 181
-1.350041e+00 -6.841898e-02 -2.954361e+00 138 106 85
-1.350041e+00 -6.841898e-02 -2.954361e+00 138 106 85
-1.408433e+00 -3.038161e-02 -2.913986e+00 230 204 191
-1.441659e+00 5.739935e-03 -2.907698e+00 227 191 169
-1.447268e+00 1.275079e-02 -2.906927e+00 224 185 163
-1.315847e+00 -3.742653e-02 -2.963369e+00 212 185 166
-1.454363e+00 2.331063e-02 -2.902505e+00 195 157 134
-1.367989e+00 2.223646e-03 -2.921395e+00 145 107 84
-1.424988e+00 2.494433e-02 -2.906823e+00 231 197 172
-1.539777e+00 4.882411e-02 -2.915276e+00 239 204 182
-1.399644e+00 5.416328e-02 -2.897383e+00 255 227 196
-1.282492e+00 1.615828e-02 -2.950133e+00 153 126 107
-1.282492e+00 1.615828e-02 -2.950133e+00 153 126 107
-1.370185e+00 6.162592e-02 -2.904094e+00 237 202 172
-1.589052e+00 7.005939e-02 -2.921379e+00 202 162 135
1.339418e+00 6.794189e-03 -2.644334e+00 216 196 197
-1.434633e+00 8.703630e-02 -2.896355e+00 254 221 194
-1.538424e+00 9.225306e-02 -2.912788e+00 186 152 125
1.368994e+00 2.620705e-02 -2.634970e+00 218 199 201
-1.436134e+00 9.650930e-02 -2.895341e+00 249 214 182
-1.358299e+00 1.075237e-01 -2.900345e+00 197 161 128
-1.552823e+00 1.297099e-01 -2.908005e+00 213 182 162
