ply
format ascii 1.0
element face 0
property list uchar int vertex_indices
element vertex 908
property float x
property float y
property float z
property uchar diffuse_red
property uchar diffuse_green
property uchar diffuse_blue
end_header
9.065569e-01 1.568971e-01 -2.818356e+00 255 249 229
-1.435842e+00 2.371925e-01 -2.982983e+00 248 203 162
-9.478491e-01 2.487481e-01 -2.909015e+00 241 221 189
-9.234616e-01 2.523718e-01 -2.910764e+00 245 229 195
9.043933e-01 1.710411e-01 -2.822687e+00 225 194 163
8.874626e-01 1.736979e-01 -2.829206e+00 255 246 213
9.779484e-01 1.781468e-01 -2.814005e+00 253 247 225
1.367033e+00 2.082811e-01 -2.724747e+00 183 144 103
-1.343623e+00 2.632317e-01 -2.995657e+00 255 217 168
-2.761163e-01 2.783363e-01 -2.838472e+00 213 190 156
-2.330870e-01 2.953891e-01 -2.848520e+00 201 177 141
-1.101245e+00 2.979879e-01 -2.972886e+00 190 147 96
-1.036207e+00 3.129418e-01 -2.972727e+00 203 169 121
1.171440e+00 2.670224e-01 -2.861734e+00 244 213 184
1.171543e+00 2.806494e-01 -2.877525e+00 223 175 129
-1.452913e+00 3.859464e-01 -3.034194e+00 255 212 171
1.177745e+00 3.032969e-01 -2.901262e+00 225 187 148
-1.342042e+00 -1.014369e-01 -2.956469e+00 22 15 10
-1.499595e+00 3.053311e-03 -2.916158e+00 238 201 175
-1.596456e+00 1.958194e-02 -2.936896e+00 255 235 209
-1.562331e+00 4.181154e-02 -2.923880e+00 220 186 159
-1.447431e+00 5.420854e-02 -2.902554e+00 255 241 218
-1.585037e+00 6.126539e-02 -2.922811e+00 235 194 170
-1.582103e+00 8.673197e-02 -2.919317e+00 174 131 108
-1.582103e+00 8.683256e-02 -2.919169e+00 174 131 108
1.288178e+00 -8.038070e-02 -2.795303e+00 11 8 4
1.285159e+00 7.530026e-03 -2.672089e+00 187 163 150
-1.531951e+00 1.588712e-01 -2.907152e+00 185 134 95
-1.513304e+00 1.620781e-01 -2.906642e+00 219 175 148
1.259215e+00 7.863861e-02 -2.693866e+00 245 213 182
1.225493e+00 4.971816e-02 -2.751681e+00 233 198 169
-1.297206e+00 1.641075e-01 -2.916169e+00 241 194 148
-1.297406e+00 1.634510e-01 -2.917082e+00 241 194 148
-1.134701e+00 1.599912e-01 -2.907981e+00 255 224 183
-1.305415e+00 1.697871e-01 -2.918064e+00 196 149 101
1.245847e+00 9.660309e-02 -2.710803e+00 253 222 194
-1.089972e+00 1.664369e-01 -2.905657e+00 237 212 181
-1.090147e+00 1.656923e-01 -2.906321e+00 237 212 181
1.317424e+00 1.276775e-01 -2.658072e+00 213 191 168
-9.586672e-01 1.729380e-01 -2.891590e+00 222 199 168
-1.010202e+00 1.756450e-01 -2.898219e+00 226 205 178
1.268429e+00 1.237410e-01 -2.697261e+00 172 135 99
1.176865e+00 8.753782e-02 -2.773659e+00 231 213 203
1.197029e+00 9.652984e-02 -2.768782e+00 220 182 161
1.319558e+00 1.487642e-01 -2.671020e+00 255 248 222
1.142931e+00 1.022795e-01 -2.772209e+00 255 237 215
1.216333e+00 1.221605e-01 -2.762412e+00 206 165 133
9.296738e-01 8.053984e-02 -2.871670e+00 255 248 238
-1.222197e+00 2.278381e-01 -2.953719e+00 219 171 122
-1.222197e+00 2.278381e-01 -2.953719e+00 219 171 122
1.281964e+00 1.776046e-01 -2.735791e+00 255 233 194
1.227221e+00 1.644264e-01 -2.774351e+00 227 188 149
-1.301355e+00 2.347708e-01 -2.979335e+00 249 202 149
1.277930e+00 1.758627e-01 -2.754134e+00 169 130 91
8.923930e-01 1.641280e-01 -2.825586e+00 224 194 160
1.314358e+00 1.911223e-01 -2.729656e+00 207 170 128
1.314358e+00 1.911223e-01 -2.729656e+00 207 170 128
-2.526505e-03 2.471775e-01 -2.818744e+00 238 215 173
-3.876191e-01 2.613996e-01 -2.843019e+00 219 202 172
8.580529e-01 1.793229e-01 -2.831586e+00 230 207 167
-3.366212e-01 2.691437e-01 -2.840276e+00 224 203 172
-9.232686e-01 2.727103e-01 -2.921655e+00 242 223 193
-2.909797e-02 2.680123e-01 -2.824867e+00 250 228 191
-1.099378e-01 2.732925e-01 -2.827765e+00 250 228 191
-1.287511e+00 2.693463e-01 -2.990590e+00 255 222 170
-3.001615e-02 2.765711e-01 -2.828505e+00 219 196 164
1.348116e+00 2.241278e-01 -2.783981e+00 241 207 170
1.293514e+00 2.193209e-01 -2.801464e+00 254 218 176
1.110901e+00 2.208659e-01 -2.841531e+00 255 235 200
-1.288844e+00 3.108786e-01 -3.010679e+00 119 70 29
-1.288824e+00 3.108638e-01 -3.010707e+00 119 70 29
1.118767e+00 2.345644e-01 -2.862085e+00 142 99 57
1.118115e+00 2.353436e-01 -2.861114e+00 142 99 57
-9.277153e-01 3.203530e-01 -2.971211e+00 239 216 184
8.086412e-01 2.557178e-01 -2.902669e+00 252 234 200
-1.371194e+00 3.671002e-01 -3.033344e+00 224 186 147
1.117144e+00 3.196568e-01 -2.966221e+00 255 226 180
1.086939e+00 3.204066e-01 -2.996673e+00 247 218 186
-1.549314e+00 -3.121823e-02 -2.941984e+00 198 163 143
-1.377355e+00 -2.232203e-02 -2.923003e+00 169 138 120
-1.432574e+00 1.075769e-02 -2.905057e+00 241 206 184
-1.556039e+00 2.139710e-02 -2.928437e+00 115 76 57
-1.429499e+00 3.322767e-02 -2.903023e+00 209 175 150
-1.550023e+00 3.344815e-02 -2.922563e+00 255 242 220
1.285985e+00 -3.806498e-02 -2.706027e+00 215 198 188
-1.410424e+00 1.154145e-01 -2.890933e+00 255 228 194
-1.254468e+00 1.071653e-01 -2.917717e+00 255 237 211
1.254555e+00 4.450629e-02 -2.697401e+00 243 209 175
1.255501e+00 5.364101e-02 -2.698751e+00 209 173 135
1.270492e+00 6.796324e-02 -2.675575e+00 205 174 144
1.238456e+00 4.235977e-02 -2.719973e+00 236 206 180
-1.198466e+00 1.222857e-01 -2.917351e+00 252 229 207
1.264828e+00 7.611514e-02 -2.683663e+00 229 195 160
1.301737e+00 9.869589e-02 -2.654300e+00 255 250 234
-1.464061e+00 1.638058e-01 -2.924528e+00 126 81 40
-1.559920e+00 1.738909e-01 -2.923063e+00 203 155 115
-1.419331e+00 1.721134e-01 -2.926081e+00 254 209 157
9.283544e-01 2.416046e-02 -2.870710e+00 255 241 221
-1.091153e+00 1.762409e-01 -2.904318e+00 255 237 201
-1.278594e+00 1.821463e-01 -2.924064e+00 245 197 149
-1.174308e+00 1.819329e-01 -2.913787e+00 255 207 164
-7.309431e-01 1.775810e-01 -2.872369e+00 252 236 211
-9.741179e-01 1.842411e-01 -2.894951e+00 255 246 208
-9.502216e-01 1.912927e-01 -2.891944e+00 239 223 190
1.257225e+00 1.357173e-01 -2.716035e+00 227 189 150
1.194782e+00 1.097737e-01 -2.769919e+00 255 240 219
1.195677e+00 1.091297e-01 -2.770889e+00 255 240 219
-1.156467e+00 2.062794e-01 -2.926481e+00 211 163 117
-1.394088e+00 2.023869e-01 -2.969602e+00 145 94 47
8.753290e-01 7.907396e-02 -2.885488e+00 255 231 204
8.616847e-01 8.445130e-02 -2.886113e+00 245 229 213
-1.167318e+00 2.144865e-01 -2.932252e+00 216 168 119
-1.318316e+00 2.111898e-01 -2.960316e+00 255 212 157
1.009341e+00 1.157241e-01 -2.829653e+00 222 211 209
-6.920105e-01 2.248383e-01 -2.864823e+00 255 240 210
-1.281506e+00 2.156870e-01 -2.958282e+00 250 200 147
7.181124e-01 1.054720e-01 -2.891854e+00 194 190 187
-1.337171e+00 2.163862e-01 -2.971828e+00 245 195 140
1.264739e+00 1.616705e-01 -2.734105e+00 255 231 193
9.849328e-01 1.287996e-01 -2.827699e+00 250 237 229
-3.580569e-01 2.278578e-01 -2.831834e+00 255 243 211
1.236210e+00 1.526573e-01 -2.764465e+00 208 168 132
1.251672e+00 1.595949e-01 -2.754713e+00 255 228 190
9.757114e-01 1.368085e-01 -2.828785e+00 228 213 208
1.050191e+00 1.457643e-01 -2.812867e+00 228 190 154
-2.549353e-01 2.339823e-01 -2.825237e+00 246 226 191
-4.619282e-01 2.517858e-01 -2.846651e+00 254 235 205
-1.428868e+00 2.464577e-01 -2.987129e+00 180 130 88
1.323204e+00 1.975231e-01 -2.737141e+00 217 182 144
1.323984e+00 1.973462e-01 -2.737787e+00 217 182 144
3.515938e-01 2.173302e-01 -2.828103e+00 248 232 198
-1.191827e+00 2.547561e-01 -2.964825e+00 203 157 105
-1.165888e-01 2.569853e-01 -2.824749e+00 239 215 177
-3.064289e-01 2.655572e-01 -2.833731e+00 255 241 209
9.333027e-01 1.812245e-01 -2.827105e+00 241 217 179
1.291481e+00 1.940930e-01 -2.764936e+00 203 164 121
1.291481e+00 1.940930e-01 -2.764936e+00 203 164 121
-4.463404e-01 2.708017e-01 -2.851522e+00 250 233 203
1.054053e+00 1.852555e-01 -2.822066e+00 228 202 175
-2.441702e-01 2.729610e-01 -2.831348e+00 248 226 189
-4.251186e-01 2.771959e-01 -2.850949e+00 250 232 201
-4.251186e-01 2.771959e-01 -2.850949e+00 250 232 201
1.003148e+00 1.918498e-01 -2.829140e+00 255 222 184
-8.811647e-01 2.774450e-01 -2.916037e+00 254 239 203
1.133131e+00 1.881183e-01 -2.825337e+00 212 178 141
1.133131e+00 1.881183e-01 -2.825337e+00 212 178 141
-4.522818e-01 2.850927e-01 -2.858696e+00 255 247 217
1.126922e+00 1.919785e-01 -2.828975e+00 255 248 218
-1.322304e+00 2.708455e-01 -3.000878e+00 255 213 163
-1.102678e+00 2.784013e-01 -2.959924e+00 255 222 173
-4.675192e-01 2.887916e-01 -2.864075e+00 255 239 207
1.277065e+00 2.071575e-01 -2.793217e+00 252 210 168
9.067793e-01 2.013776e-01 -2.853372e+00 255 238 198
1.086580e+00 1.990146e-01 -2.836752e+00 241 211 174
9.818265e-01 2.026858e-01 -2.845476e+00 204 169 128
-1.369115e+00 2.819993e-01 -3.001205e+00 245 199 150
1.180581e+00 2.133742e-01 -2.845826e+00 136 97 58
-1.123919e+00 2.998422e-01 -2.978288e+00 232 192 143
-1.374720e+00 3.031677e-01 -3.006945e+00 255 233 191
1.267537e+00 2.276732e-01 -2.823454e+00 222 179 131
-4.416902e-01 3.136673e-01 -2.880633e+00 249 226 192
1.055218e+00 2.209600e-01 -2.865623e+00 255 221 171
-5.799052e-01 3.156506e-01 -2.899603e+00 255 238 197
1.071984e+00 2.269484e-01 -2.869510e+00 230 184 135
1.127741e+00 2.405305e-01 -2.855644e+00 212 160 113
-1.073887e+00 3.195694e-01 -3.000339e+00 198 165 121
1.112230e+00 2.521813e-01 -2.866923e+00 255 224 192
1.135047e+00 2.788640e-01 -2.897072e+00 227 193 155
1.200171e+00 2.939267e-01 -2.871632e+00 184 133 86
1.163850e+00 2.923184e-01 -2.906422e+00 224 184 142
1.055769e+00 3.029142e-01 -2.987004e+00 206 171 129
1.259658e+00 3.339506e-01 -2.901077e+00 255 224 181
1.201402e+00 3.278986e-01 -2.930396e+00 255 222 181
1.261815e+00 3.367942e-01 -2.942104e+00 229 197 159
1.108879e+00 3.237346e-01 -3.001432e+00 252 221 190
-1.419100e+00 -7.810684e-02 -2.925268e+00 181 154 145
-1.484615e+00 -5.712001e-02 -2.927048e+00 255 238 226
-1.375693e+00 -3.726702e-02 -2.927317e+00 174 145 129
-1.448085e+00 -1.863987e-02 -2.911031e+00 255 231 210
-1.370536e+00 -9.563293e-03 -2.920135e+00 245 216 200
-1.480180e+00 3.292058e-02 -2.905884e+00 208 172 146
-1.533542e+00 2.993430e-02 -2.919511e+00 180 144 122
-1.533533e+00 2.933580e-02 -2.920435e+00 180 144 122
-1.476008e+00 4.032170e-02 -2.904506e+00 255 233 209
-1.384478e+00 3.453071e-02 -2.909976e+00 255 224 196
-1.384478e+00 3.453071e-02 -2.909976e+00 255 224 196
-1.569112e+00 5.234634e-02 -2.920370e+00 255 230 203
-1.487386e+00 5.992472e-02 -2.902912e+00 222 199 181
-1.516354e+00 6.253393e-02 -2.907095e+00 255 237 216
-1.592466e+00 6.641249e-02 -2.926146e+00 202 162 135
-1.393523e+00 7.751642e-02 -2.898970e+00 253 220 189
-1.415630e+00 9.520449e-02 -2.895475e+00 209 174 144
-1.326754e+00 8.372335e-02 -2.911472e+00 248 217 189
-1.365008e+00 1.058273e-01 -2.898074e+00 253 214 181
-1.374839e+00 1.168943e-01 -2.895657e+00 200 163 129
-1.215235e+00 9.179118e-02 -2.922149e+00 249 230 213
-1.333753e+00 1.157708e-01 -2.901421e+00 191 155 121
1.255215e+00 3.771298e-02 -2.693814e+00 185 150 112
-1.496126e+00 1.565261e-01 -2.904762e+00 231 193 151
-1.215281e+00 1.264607e-01 -2.915476e+00 255 235 199
1.262174e+00 6.831774e-02 -2.688434e+00 191 158 125
-1.357383e+00 1.516101e-01 -2.905216e+00 255 219 173
-1.357383e+00 1.516101e-01 -2.905216e+00 255 219 173
-1.227270e+00 1.418491e-01 -2.915142e+00 201 159 117
-1.345892e+00 1.631901e-01 -2.913819e+00 252 206 157
-1.232890e+00 1.552191e-01 -2.912473e+00 255 213 168
-1.094585e+00 1.522282e-01 -2.905754e+00 239 215 181
1.275396e+00 1.060616e-01 -2.676932e+00 255 233 202
-1.457046e+00 1.715448e-01 -2.926162e+00 237 193 148
-1.108633e+00 1.550178e-01 -2.908474e+00 255 238 207
1.320845e+00 1.256232e-01 -2.653958e+00 255 251 233
1.213719e+00 6.635636e-02 -2.761882e+00 255 243 237
1.220758e+00 7.945937e-02 -2.746562e+00 247 211 184
-9.172643e-01 1.627396e-01 -2.888706e+00 255 243 218
-1.487006e+00 1.876948e-01 -2.925963e+00 255 221 184
1.213462e+00 7.910204e-02 -2.757120e+00 226 198 178
-1.199587e+00 1.719279e-01 -2.914643e+00 247 202 158
-1.358561e+00 1.774234e-01 -2.928994e+00 235 185 132
9.292970e-01 3.528004e-02 -2.866284e+00 163 130 104
1.239456e+00 9.831385e-02 -2.728150e+00 115 79 45
1.229477e+00 9.015456e-02 -2.741004e+00 255 227 193
9.495640e-01 4.010451e-02 -2.865994e+00 255 250 220
-1.238921e+00 1.821397e-01 -2.918127e+00 211 164 118
-1.183390e+00 1.834276e-01 -2.916565e+00 255 225 181
-1.002976e+00 1.839190e-01 -2.898356e+00 253 227 190
-9.980751e-01 1.863748e-01 -2.899145e+00 255 232 193
-1.420080e+00 1.902653e-01 -2.950066e+00 225 179 130
-1.163042e+00 1.925970e-01 -2.918480e+00 251 204 158
-1.163109e+00 1.924326e-01 -2.918696e+00 251 204 158
-1.363571e+00 1.929884e-01 -2.949504e+00 180 129 80
1.297755e+00 1.502161e-01 -2.685176e+00 229 200 168
8.763989e-01 6.733305e-02 -2.878289e+00 255 249 208
-1.281325e+00 1.968012e-01 -2.943980e+00 120 71 28
-1.378473e+00 1.968702e-01 -2.956766e+00 209 158 105
-1.378473e+00 1.968702e-01 -2.956766e+00 209 158 105
-1.401043e+00 1.978516e-01 -2.959476e+00 188 139 99
-1.210862e+00 2.016506e-01 -2.930520e+00 255 211 163
-8.836939e-01 2.035024e-01 -2.885674e+00 255 248 214
-1.439526e+00 2.012096e-01 -2.973965e+00 223 175 127
-1.450427e+00 2.066705e-01 -2.968176e+00 143 95 50
-1.431885e+00 2.029424e-01 -2.975747e+00 211 165 113
1.343126e+00 1.792676e-01 -2.684819e+00 255 230 196
1.108161e+00 1.352463e-01 -2.797375e+00 255 241 217
-1.406468e+00 2.174153e-01 -2.991119e+00 228 177 125
-5.094815e-01 2.369626e-01 -2.847258e+00 255 239 206
-1.264883e+00 2.291271e-01 -2.964618e+00 255 223 170
-1.340446e+00 2.251365e-01 -2.982132e+00 253 204 148
-1.120456e+00 2.363869e-01 -2.938267e+00 255 235 188
-1.005015e+00 2.402721e-01 -2.918645e+00 236 215 172
1.346732e+00 1.942296e-01 -2.704373e+00 255 225 187
-1.164425e+00 2.395757e-01 -2.949347e+00 255 224 173
-1.245698e+00 2.383930e-01 -2.967776e+00 216 169 117
-1.406500e+00 2.330520e-01 -2.996313e+00 222 173 133
1.360267e+00 1.998065e-01 -2.707162e+00 254 222 187
1.351214e+00 1.984249e-01 -2.712430e+00 255 237 197
-5.228375e-01 2.552376e-01 -2.852404e+00 236 220 184
-1.224579e+00 2.532845e-01 -2.973814e+00 254 206 157
-1.328617e+00 2.540378e-01 -2.994637e+00 255 224 173
8.643121e-01 1.848432e-01 -2.837248e+00 255 244 205
-5.136953e-01 2.720517e-01 -2.863076e+00 230 214 180
5.066924e-03 2.633277e-01 -2.820548e+00 250 226 188
-3.309685e-01 2.742236e-01 -2.843671e+00 244 225 193
-8.984843e-01 2.738390e-01 -2.917804e+00 255 247 215
-2.236655e-01 2.776537e-01 -2.834670e+00 214 192 153
-3.962132e-01 2.899256e-01 -2.857859e+00 227 211 178
-1.408148e+00 2.874837e-01 -2.999699e+00 246 202 163
6.288651e-02 2.775076e-01 -2.832942e+00 221 201 166
-2.762577e-02 2.836673e-01 -2.834656e+00 248 228 195
-4.326692e-01 2.966814e-01 -2.863682e+00 254 235 202
-1.242246e+00 2.851569e-01 -2.988841e+00 252 204 155
-1.104736e+00 2.901181e-01 -2.966913e+00 255 224 174
9.960750e-01 2.076456e-01 -2.863895e+00 255 247 204
1.040834e+00 2.142428e-01 -2.852324e+00 255 221 173
1.183287e+00 2.201952e-01 -2.843777e+00 255 248 209
-8.825448e-01 3.105654e-01 -2.944862e+00 235 214 181
-5.395661e-01 3.177574e-01 -2.898052e+00 255 237 201
-3.290966e-01 3.173855e-01 -2.880599e+00 210 190 153
1.176532e+00 2.394309e-01 -2.845102e+00 255 237 210
-1.255980e+00 3.205770e-01 -3.012259e+00 184 138 88
-1.255984e+00 3.206260e-01 -3.012372e+00 184 138 88
-1.235293e+00 3.204615e-01 -3.012214e+00 237 191 142
1.123429e+00 2.450480e-01 -2.859734e+00 255 235 200
1.146199e+00 2.627164e-01 -2.859839e+00 255 233 207
1.110980e+00 2.640502e-01 -2.884923e+00 189 153 114
1.138761e+00 2.785071e-01 -2.885023e+00 255 233 197
-1.363009e+00 3.632102e-01 -3.034752e+00 215 173 132
-1.458481e+00 3.772114e-01 -3.029381e+00 189 138 95
1.195073e+00 2.897663e-01 -2.874641e+00 238 190 141
1.170343e+00 2.873626e-01 -2.887378e+00 225 181 135
-1.375498e+00 3.776749e-01 -3.046412e+00 189 153 117
-1.391967e+00 3.877552e-01 -3.053197e+00 186 152 118
1.208981e+00 3.157509e-01 -2.880243e+00 252 210 167
1.216953e+00 3.225253e-01 -2.879740e+00 255 229 186
1.091403e+00 3.087692e-01 -2.973629e+00 255 237 194
-1.427486e+00 -6.206868e-02 -2.920399e+00 144 119 115
-1.386949e+00 -4.081226e-02 -2.922979e+00 145 113 97
-1.393311e+00 -1.091502e-02 -2.916717e+00 209 180 164
-1.487061e+00 -7.304503e-04 -2.914681e+00 194 158 134
-1.535395e+00 3.598772e-02 -2.918224e+00 245 211 189
-1.346845e+00 1.774226e-02 -2.921045e+00 144 108 83
-1.322553e+00 5.526322e-03 -2.936571e+00 243 213 189
-1.360083e+00 2.083198e-02 -2.918843e+00 177 140 113
-1.302926e+00 6.225081e-03 -2.946199e+00 248 220 197
-1.591973e+00 5.382903e-02 -2.926446e+00 188 149 120
-1.473533e+00 5.992116e-02 -2.902435e+00 148 120 97
-1.473533e+00 5.992116e-02 -2.902435e+00 148 120 97
-1.362844e+00 4.755263e-02 -2.909992e+00 234 197 168
-1.529435e+00 6.171043e-02 -2.912194e+00 169 135 108
-1.501235e+00 6.348082e-02 -2.906975e+00 255 234 216
-1.331513e+00 4.294142e-02 -2.918134e+00 150 114 82
-1.592325e+00 5.965359e-02 -2.927323e+00 235 195 169
-1.584862e+00 7.208818e-02 -2.921682e+00 199 159 133
-1.613057e+00 7.671122e-02 -2.932714e+00 151 103 62
-1.302527e+00 5.806978e-02 -2.920075e+00 176 142 114
-1.302525e+00 5.709588e-02 -2.921460e+00 176 142 114
-1.320117e+00 6.662991e-02 -2.916476e+00 183 149 121
-1.406660e+00 9.711488e-02 -2.895192e+00 196 159 130
1.291244e+00 4.517434e-02 -2.656555e+00 255 241 233
-1.535007e+00 1.238433e-01 -2.906634e+00 121 89 73
-1.242372e+00 9.618268e-02 -2.921426e+00 255 239 216
1.252384e+00 3.537345e-02 -2.699757e+00 228 201 173
-1.570047e+00 1.454753e-01 -2.914063e+00 210 174 150
-1.202274e+00 1.142570e-01 -2.917333e+00 208 187 168
-1.279951e+00 1.307744e-01 -2.910701e+00 255 218 179
1.239492e+00 5.806784e-02 -2.717879e+00 229 196 165
-1.518259e+00 1.675446e-01 -2.907061e+00 130 82 46
1.308910e+00 1.040220e-01 -2.651897e+00 244 228 212
-1.542299e+00 1.730895e-01 -2.913499e+00 198 148 111
1.245089e+00 7.701902e-02 -2.712327e+00 199 166 135
1.244317e+00 7.765448e-02 -2.711367e+00 199 166 135
-1.103113e+00 1.455852e-01 -2.907895e+00 255 244 213
-1.421893e+00 1.659727e-01 -2.918050e+00 255 243 198
-1.515365e+00 1.772441e-01 -2.914212e+00 159 113 77
-1.244776e+00 1.565597e-01 -2.913397e+00 249 206 163
-1.332401e+00 1.631904e-01 -2.916155e+00 165 118 74
-1.097011e+00 1.569609e-01 -2.906401e+00 255 245 213
-1.096696e+00 1.579506e-01 -2.904667e+00 255 245 213
1.265778e+00 1.056526e-01 -2.691133e+00 255 237 207
-1.390721e+00 1.737988e-01 -2.926762e+00 194 142 92
-1.390721e+00 1.737988e-01 -2.926762e+00 194 142 92
-1.423661e+00 1.762637e-01 -2.932631e+00 228 180 135
1.306946e+00 1.266349e-01 -2.664023e+00 255 249 226
1.217179e+00 8.162955e-02 -2.752157e+00 255 247 220
1.223192e+00 9.014960e-02 -2.746879e+00 255 247 213
-1.152249e+00 1.791491e-01 -2.909733e+00 255 233 186
-1.417437e+00 1.792732e-01 -2.944531e+00 118 77 43
-1.494865e+00 1.922967e-01 -2.934755e+00 253 215 179
-1.480531e+00 1.908561e-01 -2.938047e+00 101 61 25
-1.126650e+00 1.808139e-01 -2.910065e+00 255 242 196
-1.043661e+00 1.816322e-01 -2.901476e+00 255 230 195
8.998961e-01 5.306546e-02 -2.873439e+00 255 223 180
-7.750454e-01 1.839589e-01 -2.874189e+00 255 242 216
-1.220650e+00 1.953529e-01 -2.925752e+00 255 215 171
-1.158767e+00 1.953492e-01 -2.920926e+00 205 158 110
-1.236562e+00 1.960652e-01 -2.930171e+00 252 204 157
-1.236643e+00 1.958613e-01 -2.930647e+00 252 204 157
-1.299309e+00 1.941770e-01 -2.941211e+00 180 133 81
1.223501e+00 1.210021e-01 -2.755831e+00 250 214 177
-1.283694e+00 2.022873e-01 -2.944160e+00 246 199 147
8.764039e-01 7.250083e-02 -2.881577e+00 206 174 132
-1.361373e+00 2.017688e-01 -2.958652e+00 177 129 75
-1.430897e+00 1.984002e-01 -2.973306e+00 121 74 28
-1.370495e+00 2.020408e-01 -2.961563e+00 222 172 119
8.680964e-01 7.495818e-02 -2.887436e+00 203 166 121
-6.471039e-01 2.157156e-01 -2.859586e+00 218 199 169
-1.338877e+00 2.080562e-01 -2.963429e+00 227 177 124
-1.441276e+00 2.071921e-01 -2.980625e+00 130 82 36
-1.307226e+00 2.130739e-01 -2.960372e+00 249 202 146
1.183178e+00 1.371362e-01 -2.771420e+00 255 232 206
1.230621e+00 1.443385e-01 -2.759755e+00 225 186 146
-1.149423e+00 2.237398e-01 -2.936453e+00 255 243 198
1.227085e+00 1.520502e-01 -2.766151e+00 187 147 111
-7.848959e-01 2.353824e-01 -2.880564e+00 224 208 174
-1.400929e+00 2.201397e-01 -2.991454e+00 83 39 3
-5.632674e-01 2.371866e-01 -2.855179e+00 236 217 184
1.134887e+00 1.475626e-01 -2.794544e+00 239 214 184
1.194190e+00 1.550996e-01 -2.777886e+00 232 197 158
-1.379111e+00 2.292653e-01 -2.992169e+00 254 208 156
1.240863e+00 1.658649e-01 -2.767844e+00 255 224 185
1.326776e+00 1.920526e-01 -2.717220e+00 255 222 185
1.088780e+00 1.558832e-01 -2.809580e+00 223 215 192
1.088780e+00 1.558832e-01 -2.809580e+00 223 215 192
-9.036597e-01 2.548639e-01 -2.907396e+00 234 206 166
-1.303019e+00 2.422183e-01 -2.984349e+00 161 111 58
-1.303019e+00 2.422183e-01 -2.984349e+00 161 111 58
1.145907e+00 1.690018e-01 -2.806400e+00 255 249 214
1.021932e+00 1.788117e-01 -2.819057e+00 161 116 77
1.021637e+00 1.791989e-01 -2.818538e+00 161 116 77
-8.045850e-01 2.658362e-01 -2.897883e+00 235 222 187
1.069927e+00 1.797738e-01 -2.818302e+00 255 252 229
-1.048829e+00 2.647786e-01 -2.938714e+00 255 246 205
1.024107e+00 1.837017e-01 -2.819338e+00 255 249 213
-1.104550e+00 2.633292e-01 -2.950661e+00 255 230 181
-1.249279e+00 2.641873e-01 -2.979817e+00 196 148 99
9.689838e-01 1.945767e-01 -2.832206e+00 151 116 74
-1.370507e+00 2.684791e-01 -3.000051e+00 198 150 104
1.171761e+00 1.881168e-01 -2.823460e+00 156 124 86
-1.199802e+00 2.838175e-01 -2.979831e+00 255 224 175
-1.293013e+00 2.831304e-01 -2.996745e+00 210 163 111
-1.334693e+00 2.879026e-01 -3.004294e+00 254 210 164
1.117825e+00 2.094650e-01 -2.838622e+00 255 245 214
1.201898e+00 2.094202e-01 -2.832360e+00 255 253 212
-1.094545e+00 2.953066e-01 -2.968648e+00 251 217 170
-1.323074e+00 2.990601e-01 -3.004104e+00 222 175 127
-1.298258e+00 2.993232e-01 -3.003130e+00 238 187 140
2.813377e-01 2.771748e-01 -2.847255e+00 255 238 201
1.058814e+00 2.205747e-01 -2.854360e+00 211 170 124
1.197370e+00 2.216528e-01 -2.843049e+00 208 178 138
-1.354166e+00 3.066230e-01 -3.008292e+00 217 170 126
-3.869452e-01 3.190029e-01 -2.880456e+00 245 222 182
-1.249954e+00 3.153548e-01 -3.007727e+00 240 192 143
1.182198e+00 2.418347e-01 -2.850530e+00 221 191 165
1.181388e+00 2.424594e-01 -2.849843e+00 221 191 165
1.131174e+00 2.441221e-01 -2.858682e+00 211 168 124
-1.295882e+00 3.231127e-01 -3.015668e+00 195 147 99
1.046065e+00 2.398866e-01 -2.891644e+00 243 227 192
-1.238284e+00 3.248808e-01 -3.020091e+00 129 86 40
-1.237864e+00 3.256306e-01 -3.018513e+00 129 86 40
-1.283433e+00 3.306824e-01 -3.020860e+00 196 149 100
-1.271577e+00 3.322991e-01 -3.025139e+00 155 108 62
1.223866e+00 2.731151e-01 -2.854779e+00 255 239 197
1.212564e+00 2.740099e-01 -2.855843e+00 254 211 169
1.219070e+00 2.754313e-01 -2.856181e+00 208 163 123
-1.364933e+00 3.551710e-01 -3.031795e+00 199 157 117
-1.417371e+00 3.867226e-01 -3.043740e+00 164 118 82
-1.377086e+00 3.788134e-01 -3.055522e+00 103 65 32
-1.494874e+00 3.868524e-01 -3.063176e+00 194 150 111
1.048988e+00 2.915312e-01 -2.966551e+00 214 179 136
1.043776e+00 2.976183e-01 -2.992724e+00 228 198 160
1.151482e+00 3.161737e-01 -2.954078e+00 219 189 153
1.078324e+00 3.110371e-01 -2.975796e+00 249 217 175
1.190606e+00 3.318717e-01 -2.938574e+00 255 228 190
1.196204e+00 3.339475e-01 -2.946262e+00 206 174 135
1.214600e+00 3.399202e-01 -2.997002e+00 202 169 134
1.186422e+00 3.391794e-01 -3.016367e+00 115 97 78
1.198760e+00 3.399893e-01 -3.044510e+00 139 122 105
-1.440206e+00 -7.158144e-02 -2.919511e+00 197 174 168
-1.486182e+00 -6.498473e-02 -2.928347e+00 197 167 149
-1.449746e+00 -5.829093e-02 -2.919008e+00 253 227 213
-1.421601e+00 -6.040516e-02 -2.919948e+00 152 128 120
-1.421573e+00 -6.048038e-02 -2.920040e+00 152 128 120
-1.447880e+00 -5.358663e-02 -2.918411e+00 195 167 150
-1.371436e+00 -5.583868e-02 -2.932415e+00 185 158 141
-1.585033e+00 -3.525075e-02 -2.957199e+00 249 218 200
-1.346073e+00 -3.721080e-02 -2.943150e+00 167 140 118
-1.490614e+00 1.806792e-02 -2.910062e+00 201 164 138
-1.428295e+00 1.708409e-02 -2.907383e+00 175 140 118
-1.553978e+00 1.506607e-02 -2.928184e+00 234 201 181
-1.495432e+00 3.423836e-02 -2.912395e+00 237 197 173
-1.374873e+00 2.580660e-02 -2.911557e+00 237 202 170
-1.431444e+00 4.513764e-02 -2.904286e+00 230 199 171
-1.404396e+00 5.516156e-02 -2.903042e+00 186 153 122
-1.428793e+00 5.649874e-02 -2.903763e+00 230 203 174
-1.337011e+00 4.278241e-02 -2.919084e+00 241 205 173
-1.399286e+00 6.484586e-02 -2.900425e+00 230 197 166
-1.376230e+00 6.198356e-02 -2.903984e+00 181 144 115
-1.540520e+00 7.167201e-02 -2.912461e+00 255 235 209
-1.324405e+00 5.065090e-02 -2.918085e+00 159 124 94
-1.324439e+00 5.053642e-02 -2.918159e+00 159 124 94
-1.391905e+00 6.997062e-02 -2.901721e+00 209 174 142
-1.587529e+00 7.557235e-02 -2.922157e+00 255 223 197
-1.473861e+00 8.494535e-02 -2.899641e+00 241 227 202
-1.303968e+00 6.540408e-02 -2.915886e+00 236 202 174
-1.422278e+00 9.973503e-02 -2.893497e+00 255 217 186
-1.292709e+00 7.453731e-02 -2.918813e+00 183 153 125
1.272985e+00 1.696181e-02 -2.676075e+00 237 215 194
-1.342524e+00 9.099063e-02 -2.906534e+00 230 195 165
-1.373830e+00 1.037122e-01 -2.897229e+00 184 148 115
-1.366249e+00 1.117545e-01 -2.898877e+00 154 118 84
-1.381053e+00 1.174677e-01 -2.896996e+00 215 181 146
-1.364384e+00 1.205663e-01 -2.896221e+00 201 162 129
-1.382542e+00 1.258320e-01 -2.895560e+00 228 192 158
-1.284766e+00 1.121090e-01 -2.911966e+00 208 170 134
1.265139e+00 4.740462e-02 -2.687473e+00 159 125 87
-1.291985e+00 1.179898e-01 -2.911404e+00 201 162 124
-1.373656e+00 1.401626e-01 -2.899835e+00 195 157 119
1.255178e+00 5.104847e-02 -2.700680e+00 186 152 115
-1.578608e+00 1.486456e-01 -2.918672e+00 255 224 190
1.242215e+00 4.525114e-02 -2.715680e+00 195 168 141
-1.285387e+00 1.323114e-01 -2.911817e+00 220 181 142
-1.492612e+00 1.535178e-01 -2.906663e+00 237 199 160
-1.542576e+00 1.588262e-01 -2.904743e+00 152 107 71
-1.328390e+00 1.426486e-01 -2.904607e+00 255 222 183
1.235722e+00 4.668878e-02 -2.725156e+00 158 128 100
-1.281711e+00 1.407664e-01 -2.910670e+00 184 142 102
-1.339664e+00 1.496705e-01 -2.907852e+00 253 212 168
-1.230759e+00 1.385857e-01 -2.914345e+00 254 219 178
1.217645e+00 4.140670e-02 -2.767597e+00 254 234 215
-1.390801e+00 1.661176e-01 -2.913967e+00 206 156 105
-1.130590e+00 1.491777e-01 -2.908533e+00 255 226 196
-1.130598e+00 1.491740e-01 -2.908629e+00 255 226 196
-1.523797e+00 1.800180e-01 -2.911924e+00 228 183 142
-1.524028e+00 1.792807e-01 -2.913102e+00 228 183 142
-1.210957e+00 1.563775e-01 -2.912383e+00 248 201 157
-1.127542e+00 1.522040e-01 -2.909042e+00 209 176 143
-1.321962e+00 1.657534e-01 -2.916435e+00 144 97 55
-1.321997e+00 1.658308e-01 -2.916339e+00 144 97 55
-1.402349e+00 1.698680e-01 -2.922660e+00 213 163 111
9.868623e-01 1.708748e-02 -2.863704e+00 254 229 201
-1.115872e+00 1.618985e-01 -2.906872e+00 255 235 196
1.306943e+00 1.218530e-01 -2.661045e+00 213 195 173
1.235113e+00 9.493700e-02 -2.726760e+00 223 187 155
1.194599e+00 7.647508e-02 -2.770801e+00 234 219 216
1.183213e+00 8.177768e-02 -2.772812e+00 255 248 242
9.022528e-01 4.109460e-02 -2.874699e+00 211 183 160
-7.500571e-01 1.709862e-01 -2.875752e+00 218 203 182
-1.215895e+00 1.825225e-01 -2.919775e+00 213 166 120
-1.216322e+00 1.826058e-01 -2.919590e+00 213 166 120
1.265399e+00 1.213943e-01 -2.703199e+00 246 208 171
-1.106433e+00 1.852018e-01 -2.909657e+00 234 203 158
-1.278893e+00 1.867921e-01 -2.929481e+00 216 167 118
-1.278894e+00 1.865529e-01 -2.930048e+00 216 167 118
-1.440370e+00 1.876689e-01 -2.949060e+00 238 193 149
-9.792482e-01 1.836783e-01 -2.895163e+00 255 252 214
-9.792809e-01 1.837418e-01 -2.895045e+00 255 252 214
-1.286384e+00 1.869583e-01 -2.930782e+00 250 200 151
-1.393844e+00 1.870098e-01 -2.946250e+00 159 109 58
1.172334e+00 9.977886e-02 -2.771124e+00 226 206 197
-1.230878e+00 1.926900e-01 -2.927415e+00 250 203 157
8.778395e-01 6.206898e-02 -2.875706e+00 220 187 146
-1.429681e+00 1.942070e-01 -2.957328e+00 215 164 121
-1.230574e+00 1.957165e-01 -2.929597e+00 187 139 93
-1.271728e+00 1.942304e-01 -2.941681e+00 192 142 93
-1.327991e+00 1.962680e-01 -2.949053e+00 207 160 106
-1.197509e+00 2.012626e-01 -2.928750e+00 223 176 130
-1.244375e+00 2.011108e-01 -2.935407e+00 249 201 152
1.189274e+00 1.207235e-01 -2.767790e+00 199 162 135
-1.161486e+00 2.060505e-01 -2.929528e+00 241 192 144
-1.219423e+00 2.116231e-01 -2.939424e+00 222 174 126
1.231784e+00 1.357741e-01 -2.755296e+00 255 230 193
-1.248951e+00 2.123451e-01 -2.944707e+00 249 201 153
-1.220169e+00 2.144149e-01 -2.940726e+00 255 216 168
-1.173496e+00 2.184972e-01 -2.937343e+00 255 218 168
-1.323761e+00 2.140822e-01 -2.965507e+00 222 172 121
1.212984e+00 1.408072e-01 -2.765253e+00 253 215 182
-9.654955e-01 2.234604e-01 -2.904486e+00 184 156 116
-9.654774e-01 2.234389e-01 -2.904401e+00 184 156 116
-1.188201e+00 2.224934e-01 -2.943578e+00 254 210 161
-1.305282e+00 2.187129e-01 -2.966012e+00 254 211 155
-1.224128e+00 2.248712e-01 -2.951357e+00 200 152 104
-1.425854e+00 2.217581e-01 -2.985487e+00 167 120 75
-1.310949e+00 2.243063e-01 -2.970215e+00 214 163 110
-1.311470e+00 2.229676e-01 -2.972440e+00 214 163 110
-1.344911e+00 2.219111e-01 -2.979868e+00 254 205 149
1.231569e+00 1.571275e-01 -2.765002e+00 209 169 133
-1.309758e+00 2.270363e-01 -2.975078e+00 254 206 153
-1.305619e+00 2.271512e-01 -2.975834e+00 141 90 38
-1.305856e+00 2.266005e-01 -2.976625e+00 141 90 38
-1.300367e+00 2.302922e-01 -2.976564e+00 251 204 150
-1.222347e+00 2.349862e-01 -2.959150e+00 222 172 121
-1.201200e+00 2.360151e-01 -2.956671e+00 255 217 165
-1.347381e+00 2.290287e-01 -2.988185e+00 227 179 125
1.141085e+00 1.560199e-01 -2.797919e+00 234 211 180
-1.224234e+00 2.388379e-01 -2.959488e+00 255 207 158
-1.125131e+00 2.411432e-01 -2.943714e+00 255 226 178
-1.228414e+00 2.386574e-01 -2.964176e+00 223 177 127
-1.236314e+00 2.380063e-01 -2.965762e+00 254 210 161
1.184301e+00 1.642184e-01 -2.795765e+00 236 207 164
9.043310e-01 1.758036e-01 -2.824221e+00 225 197 165
1.201886e+00 1.721759e-01 -2.796443e+00 221 196 155
1.144386e+00 1.712579e-01 -2.811927e+00 228 214 185
1.202288e+00 1.747710e-01 -2.799301e+00 255 241 199
-1.230105e+00 2.528739e-01 -2.974145e+00 177 129 79
-1.218205e+00 2.555969e-01 -2.972642e+00 242 195 144
-1.218205e+00 2.555969e-01 -2.972642e+00 242 195 144
-1.231850e+00 2.568408e-01 -2.975979e+00 238 190 141
-1.402947e+00 2.590954e-01 -2.997756e+00 250 201 158
9.829053e-01 1.867420e-01 -2.823241e+00 218 185 150
9.819430e-01 1.877689e-01 -2.821525e+00 218 185 150
-1.215731e+00 2.600155e-01 -2.973141e+00 209 163 113
-1.432097e+00 2.646413e-01 -2.995506e+00 200 147 109
-3.440036e-02 2.637339e-01 -2.822428e+00 247 224 183
-7.531026e-01 2.749364e-01 -2.894291e+00 232 214 176
-8.867065e-01 2.735567e-01 -2.915998e+00 255 235 195
-1.205053e+00 2.655762e-01 -2.972850e+00 222 175 125
-1.366139e+00 2.667959e-01 -3.000830e+00 241 192 151
-1.219955e+00 2.750247e-01 -2.980098e+00 245 199 149
1.004661e+00 1.989537e-01 -2.840158e+00 212 175 131
-1.386357e+00 2.787997e-01 -3.000223e+00 215 167 121
-1.318762e+00 2.788247e-01 -3.000565e+00 175 125 76
-1.287629e+00 2.836050e-01 -2.996030e+00 203 155 106
-1.197148e+00 2.865719e-01 -2.983018e+00 210 170 119
1.046097e+00 2.078617e-01 -2.845722e+00 255 223 173
1.044823e+00 2.087505e-01 -2.844120e+00 255 223 173
-1.336943e+00 2.860707e-01 -3.007642e+00 255 211 163
-1.116747e+00 2.929221e-01 -2.971490e+00 226 185 133
-1.402209e+00 2.962859e-01 -3.001970e+00 248 203 167
-5.873883e-01 3.024951e-01 -2.887693e+00 224 199 159
-9.329563e-01 2.994527e-01 -2.942448e+00 226 206 173
-1.233103e+00 2.972737e-01 -2.993910e+00 203 157 107
-1.287899e+00 2.967255e-01 -3.002407e+00 149 104 62
-1.293750e+00 2.979963e-01 -3.002301e+00 187 139 93
-1.228388e+00 2.990311e-01 -2.994613e+00 255 217 167
-1.252994e+00 3.046202e-01 -2.999238e+00 227 182 133
-5.355716e-01 3.148577e-01 -2.894190e+00 232 208 172
-1.397283e+00 3.194467e-01 -3.004083e+00 106 66 40
-1.355690e+00 3.148407e-01 -3.011372e+00 243 199 152
-1.397911e+00 3.244034e-01 -3.005779e+00 189 149 122
-1.348833e+00 3.185411e-01 -3.013291e+00 251 204 162
-1.372379e+00 3.213189e-01 -3.012973e+00 221 178 144
-1.033459e+00 3.169809e-01 -2.981962e+00 247 217 173
-1.428976e-01 3.229632e-01 -2.869587e+00 233 211 174
-1.134858e+00 3.192759e-01 -3.005189e+00 253 229 191
-1.337475e+00 3.296485e-01 -3.018146e+00 240 193 147
-1.372740e+00 3.476289e-01 -3.022460e+00 229 187 151
-1.318887e+00 3.427805e-01 -3.029303e+00 156 112 67
-1.342605e+00 3.493446e-01 -3.028826e+00 236 192 146
1.147852e+00 2.739772e-01 -2.871708e+00 255 232 196
1.212179e+00 2.875924e-01 -2.859125e+00 255 235 190
1.214618e+00 2.919694e-01 -2.859554e+00 219 177 133
1.214860e+00 2.956860e-01 -2.861710e+00 255 236 190
-1.394949e+00 3.760478e-01 -3.031496e+00 131 87 48
-1.390321e+00 3.797903e-01 -3.041469e+00 204 167 128
-1.453733e+00 3.924228e-01 -3.037582e+00 119 68 25
-1.386130e+00 3.828607e-01 -3.050467e+00 201 166 128
-1.465022e+00 3.933891e-01 -3.048451e+00 208 160 120
1.232081e+00 3.165900e-01 -2.870712e+00 176 139 95
1.232784e+00 3.161552e-01 -2.871589e+00 176 139 95
1.196238e+00 3.113992e-01 -2.893617e+00 248 209 168
-1.413735e+00 3.950950e-01 -3.056515e+00 189 149 114
1.223416e+00 3.248417e-01 -2.882091e+00 222 184 139
1.048211e+00 2.959077e-01 -2.978565e+00 252 217 175
1.137223e+00 3.114351e-01 -2.952033e+00 239 214 175
1.148575e+00 3.172387e-01 -2.956912e+00 255 242 201
1.188989e+00 3.253496e-01 -2.936992e+00 206 172 134
1.180394e+00 3.298819e-01 -2.945481e+00 197 165 124
1.080891e+00 3.132631e-01 -2.991423e+00 170 140 105
1.185081e+00 3.322903e-01 -2.951821e+00 246 214 175
1.223860e+00 3.370315e-01 -2.939655e+00 159 125 87
1.246991e+00 3.543101e-01 -3.017351e+00 23 16 5
-1.447314e+00 -7.793743e-02 -2.919992e+00 253 233 227
-1.473435e+00 -7.111950e-02 -2.925113e+00 250 218 197
-1.460175e+00 -6.401363e-02 -2.919522e+00 255 240 225
-1.452444e+00 -6.336169e-02 -2.920624e+00 212 186 173
-1.505862e+00 -3.579672e-02 -2.927910e+00 254 218 194
-1.425011e+00 -2.685027e-02 -2.913858e+00 251 221 208
-1.329047e+00 -6.699995e-02 -2.965486e+00 194 159 137
-1.466718e+00 -1.169871e-02 -2.912023e+00 239 204 182
-1.560311e+00 -9.520141e-03 -2.934044e+00 216 185 165
-1.321155e+00 -5.117168e-02 -2.969237e+00 133 101 80
-1.382991e+00 2.536536e-02 -2.912259e+00 235 201 171
-1.443508e+00 3.820897e-02 -2.903200e+00 188 156 131
-1.376629e+00 2.839615e-02 -2.913656e+00 185 149 117
-1.472214e+00 4.438271e-02 -2.903722e+00 232 204 180
-1.491550e+00 9.270468e-02 -2.900645e+00 208 203 183
-1.491652e+00 9.241035e-02 -2.901045e+00 208 203 183
-1.526358e+00 9.236363e-02 -2.907925e+00 228 201 176
-1.336279e+00 7.583157e-02 -2.909464e+00 173 136 107
-1.526514e+00 9.724509e-02 -2.906089e+00 255 244 229
-1.336302e+00 7.939297e-02 -2.909679e+00 231 195 165
-1.512802e+00 1.435414e-01 -2.904549e+00 210 181 156
-1.513539e+00 1.744303e-01 -2.910794e+00 233 185 149
9.656612e-01 -6.533593e-03 -2.877048e+00 65 58 51
-1.329903e+00 1.588195e-01 -2.913423e+00 207 163 116
-1.310902e+00 1.622814e-01 -2.913951e+00 222 174 127
-1.280325e+00 1.620136e-01 -2.916201e+00 204 161 118
-1.193712e+00 1.594708e-01 -2.911553e+00 250 208 166
-1.424333e+00 1.712180e-01 -2.925349e+00 241 197 148
-1.466151e+00 1.768392e-01 -2.935333e+00 243 199 154
-1.208998e+00 1.723937e-01 -2.914725e+00 211 167 122
-1.465034e+00 1.798872e-01 -2.936277e+00 209 166 123
1.258854e+00 1.110637e-01 -2.698232e+00 255 236 208
1.165808e+00 5.991277e-02 -2.794911e+00 164 154 153
-1.354817e+00 1.781350e-01 -2.930384e+00 215 163 113
-1.319612e+00 1.790790e-01 -2.929834e+00 238 188 139
-1.464933e+00 1.846868e-01 -2.939294e+00 168 126 84
-1.377037e+00 1.838771e-01 -2.936951e+00 229 177 125
-1.050059e+00 1.808913e-01 -2.902739e+00 255 234 199
-1.249867e+00 1.856566e-01 -2.924133e+00 208 157 110
-1.289659e+00 1.841921e-01 -2.930811e+00 213 165 116
-1.101448e+00 1.859801e-01 -2.906810e+00 241 210 168
8.960692e-01 4.838686e-02 -2.876889e+00 217 189 161
-1.154128e+00 1.876504e-01 -2.917938e+00 228 185 140
-1.434469e+00 1.910043e-01 -2.952851e+00 223 175 129
-1.112908e+00 1.915610e-01 -2.913998e+00 233 199 151
-1.190772e+00 2.022914e-01 -2.926025e+00 230 183 137
-1.165806e+00 2.052069e-01 -2.925585e+00 217 169 120
-1.213371e+00 2.047045e-01 -2.933848e+00 222 178 129
-1.348299e+00 2.030235e-01 -2.958187e+00 222 172 119
-1.409151e+00 1.990863e-01 -2.973413e+00 110 65 28
1.317566e+00 1.650549e-01 -2.684856e+00 219 194 164
-1.213090e+00 2.113488e-01 -2.937706e+00 207 164 113
-1.310567e+00 2.078886e-01 -2.957558e+00 177 130 75
-1.173748e+00 2.124127e-01 -2.932980e+00 194 146 100
-1.195865e+00 2.127087e-01 -2.937544e+00 203 155 109
-1.229533e+00 2.161656e-01 -2.945310e+00 244 197 148
-1.472996e+00 2.149377e-01 -2.981493e+00 195 148 104
-1.228647e+00 2.175199e-01 -2.948088e+00 177 129 81
-1.420557e+00 2.114388e-01 -2.985759e+00 255 219 168
-1.172831e+00 2.195448e-01 -2.941973e+00 236 193 140
-1.272504e+00 2.195170e-01 -2.957218e+00 244 197 144
-1.431344e+00 2.280197e-01 -2.982041e+00 255 217 180
-1.348859e+00 2.243701e-01 -2.988816e+00 255 209 153
-1.225318e+00 2.345677e-01 -2.960641e+00 221 172 122
-9.032482e-01 2.474534e-01 -2.904334e+00 220 193 148
-1.441872e+00 2.422133e-01 -2.987767e+00 212 163 122
-1.266129e+00 2.392768e-01 -2.973097e+00 208 160 111
-1.436444e+00 2.509639e-01 -2.991663e+00 145 92 52
-1.233761e+00 2.501752e-01 -2.972737e+00 189 141 92
-1.158699e+00 2.549026e-01 -2.955273e+00 250 212 158
-1.435179e+00 2.559843e-01 -2.989002e+00 205 152 112
-1.157324e+00 2.569903e-01 -2.956032e+00 211 170 117
-1.253938e+00 2.564143e-01 -2.981906e+00 204 156 107
9.732474e-01 1.855867e-01 -2.825560e+00 173 139 103
-1.106017e+00 2.674338e-01 -2.951490e+00 235 197 148
-1.191114e+00 2.661854e-01 -2.970917e+00 203 155 106
1.074154e+00 1.895399e-01 -2.826930e+00 219 198 169
-1.198750e+00 2.737541e-01 -2.975027e+00 243 197 148
-1.328468e+00 2.737525e-01 -3.000332e+00 255 228 180
-1.171804e+00 2.790629e-01 -2.973312e+00 255 224 175
-1.139303e+00 2.811246e-01 -2.968401e+00 245 209 165
-1.240564e+00 2.794405e-01 -2.986367e+00 223 176 124
-1.371190e+00 2.907434e-01 -3.002086e+00 255 210 167
-1.393962e+00 2.967776e-01 -3.004393e+00 226 179 137
-1.128539e+00 2.964470e-01 -2.974683e+00 251 214 162
-1.290582e+00 2.962517e-01 -3.002775e+00 212 165 119
1.448883e+00 2.170088e-01 -2.804557e+00 23 13 10
-1.237115e+00 3.041552e-01 -2.998477e+00 207 160 108
-1.208560e+00 3.039636e-01 -2.995928e+00 220 180 129
-1.375093e+00 3.190394e-01 -3.012358e+00 143 100 68
1.194310e+00 2.375390e-01 -2.845583e+00 230 206 166
-1.135309e+00 3.178215e-01 -3.001936e+00 224 190 152
1.118268e+00 2.453169e-01 -2.862295e+00 203 170 141
-1.242078e+00 3.258751e-01 -3.021400e+00 215 173 125
-1.288734e+00 3.362958e-01 -3.027092e+00 204 160 111
-1.412653e+00 3.519267e-01 -3.015454e+00 135 92 58
-1.432067e+00 3.611814e-01 -3.015708e+00 156 110 76
-1.419510e+00 3.713377e-01 -3.022507e+00 146 98 57
-1.426734e+00 3.729793e-01 -3.021059e+00 224 176 136
-1.386201e+00 3.788197e-01 -3.040029e+00 157 119 80
1.231906e+00 3.086711e-01 -2.863199e+00 255 237 192
-1.460392e+00 3.935330e-01 -3.045199e+00 123 75 36
-1.408216e+00 3.905284e-01 -3.046820e+00 112 68 33
-1.490718e+00 3.891099e-01 -3.061870e+00 236 190 154
-1.475181e+00 3.937398e-01 -3.054452e+00 181 133 93
-1.456141e+00 3.972780e-01 -3.075208e+00 168 132 102
1.049727e+00 3.030908e-01 -2.999134e+00 178 148 112
1.107415e+00 3.206884e-01 -2.976529e+00 186 152 112
1.107290e+00 3.207814e-01 -2.976403e+00 186 152 112
-1.498760e+00 9.664550e-02 -2.922988e+00 255 247 225
1.246099e+00 3.947750e-01 -3.009138e+00 18 22 23
1.167687e+00 9.023273e-02 -2.767726e+00 236 219 212
-1.524089e+00 1.710654e-01 -2.930951e+00 198 150 112
-1.479132e+00 3.822290e-01 -3.046612e+00 220 175 133
-1.442778e+00 1.606980e-02 -2.900665e+00 201 168 149
1.309437e+00 2.240454e-01 -2.786674e+00 245 207 168
-3.566571e-01 2.187827e-01 -2.833397e+00 235 215 182
1.166982e+00 2.503456e-01 -2.860394e+00 255 231 206
2.953060e-01 3.168670e-01 -2.896572e+00 221 201 166
9.194426e-01 1.816756e-02 -2.892485e+00 244 223 211
1.118658e+00 1.043725e-01 -2.791088e+00 255 241 224
-1.284794e+00 2.608492e-01 -2.996916e+00 248 202 153
1.260607e+00 -1.025442e-02 -2.672267e+00 213 196 188
1.226351e+00 6.748077e-02 -2.742386e+00 154 117 88
-1.513958e+00 3.285847e-04 -2.913883e+00 191 153 130
-1.570664e+00 6.966994e-03 -2.928977e+00 222 195 178
-1.570664e+00 6.966994e-03 -2.928977e+00 222 195 178
1.040756e+00 1.858588e-02 -2.890463e+00 19 19 21
8.736953e-01 1.891839e-01 -2.838241e+00 242 222 187
-9.076932e-01 2.692741e-01 -2.917884e+00 255 235 202
-1.554150e+00 -8.696653e-03 -2.937278e+00 234 203 185
-1.325044e+00 4.830466e-02 -2.917255e+00 164 130 104
9.553197e-01 1.166475e-01 -2.849666e+00 229 211 207
8.500831e-01 1.611046e-01 -2.827042e+00 253 248 229
8.398175e-01 1.570305e-01 -2.842572e+00 255 255 242
-1.160574e+00 1.569881e-01 -2.901704e+00 237 211 184
-1.563325e+00 1.558070e-01 -2.906724e+00 254 226 205
1.235530e+00 3.366283e-01 -2.999829e+00 199 164 132
1.108519e+00 3.317027e-01 -3.019000e+00 179 148 122
-1.238505e+00 3.322671e-01 -3.058650e+00 166 144 115
-1.477878e+00 -8.292973e-02 -2.930302e+00 255 250 249
-1.359151e+00 -7.576370e-02 -2.940081e+00 146 114 97
-1.458993e+00 -2.956305e-02 -2.918304e+00 223 194 180
-1.580596e+00 -7.527534e-03 -2.942612e+00 243 217 202
-1.613352e+00 1.100751e-02 -2.946909e+00 214 171 139
-1.328987e+00 1.055073e-01 -2.909737e+00 205 171 144
-1.328987e+00 1.055073e-01 -2.909737e+00 205 171 144
-1.342069e+00 1.233269e-01 -2.895359e+00 234 200 172
-1.221504e+00 1.256887e-01 -2.916432e+00 248 215 182
9.515155e-01 1.930839e-01 -2.827777e+00 248 232 198
-9.107260e-01 1.933820e-01 -2.888058e+00 221 204 180
-7.438720e-01 2.287440e-01 -2.869385e+00 255 238 204
-5.820427e-01 2.562087e-01 -2.862971e+00 251 235 202
-5.820427e-01 2.562087e-01 -2.862971e+00 251 235 202
-1.218364e+00 2.176236e-01 -2.945404e+00 235 190 142
1.145002e+00 3.209901e-01 -2.961407e+00 255 234 193
1.294289e+00 -1.379115e-02 -2.675820e+00 214 196 194
-1.398919e+00 -7.749180e-02 -2.928461e+00 195 171 161
-1.434805e+00 -5.973277e-02 -2.916736e+00 252 231 226
-1.596411e+00 1.965612e-02 -2.937303e+00 255 226 201
-1.380369e+00 4.252890e-02 -2.903922e+00 238 206 181
1.137830e+00 1.138856e-01 -2.779189e+00 209 172 150
1.009776e+00 7.101442e-02 -2.873073e+00 226 215 219
1.009776e+00 7.101442e-02 -2.873073e+00 226 215 219
-1.395038e+00 9.228862e-02 -2.893504e+00 198 164 137
1.157093e+00 1.573509e-01 -2.792504e+00 255 248 215
-1.299357e+00 8.323973e-02 -2.918275e+00 189 157 133
-1.382254e+00 1.101444e-01 -2.894735e+00 251 218 187
-1.416332e+00 1.116703e-01 -2.891541e+00 253 218 188
-1.588700e+00 1.324069e-01 -2.925019e+00 218 175 141
-1.136741e+00 1.483037e-01 -2.909634e+00 213 186 158
-1.591160e+00 1.462818e-01 -2.923223e+00 244 198 158
-1.154550e+00 1.664388e-01 -2.909417e+00 203 162 118
-1.077329e+00 1.746078e-01 -2.906135e+00 251 221 185
-1.077329e+00 1.746078e-01 -2.906135e+00 251 221 185
-1.101221e+00 1.797922e-01 -2.905987e+00 255 225 187
-9.839391e-01 1.935228e-01 -2.896536e+00 230 202 165
-4.263019e-01 2.531438e-01 -2.843345e+00 246 227 195
-6.778122e-01 2.709842e-01 -2.879934e+00 255 237 204
-9.235721e-01 2.525835e-01 -2.910470e+00 239 219 186
-3.587758e-01 3.070767e-01 -2.867331e+00 255 234 192
-1.419164e+00 2.321622e-01 -2.983733e+00 224 178 141
-1.329162e+00 2.438528e-01 -2.992885e+00 143 99 54
-8.823881e-01 3.008684e-01 -2.937334e+00 234 211 177
-1.415933e+00 2.602686e-01 -2.994148e+00 168 118 81
-1.321199e+00 2.832068e-01 -3.001103e+00 189 138 93
-1.341479e+00 2.833374e-01 -3.004927e+00 216 169 123
-1.242375e+00 3.060971e-01 -3.000562e+00 192 146 97
-1.288955e+00 3.112294e-01 -3.010005e+00 121 73 43
1.270103e+00 6.237899e-02 -2.668166e+00 240 213 192
-1.499613e+00 -6.147253e-02 -2.934147e+00 243 222 219
-1.524946e+00 -6.828801e-02 -2.948305e+00 190 162 148
-1.416905e+00 -3.074328e-02 -2.913861e+00 209 182 173
-1.310738e+00 -7.407703e-02 -2.977696e+00 14 12 7
9.956615e-01 5.898091e-03 -2.864150e+00 33 19 15
-1.564621e+00 1.359858e-03 -2.932092e+00 255 236 219
-1.564621e+00 1.359858e-03 -2.932092e+00 255 236 219
-1.387734e+00 1.458858e-02 -2.911675e+00 182 150 129
1.217318e+00 9.850079e-02 -2.751372e+00 229 192 166
-1.454873e+00 2.698871e-02 -2.903252e+00 197 165 144
-1.597291e+00 5.245678e-03 -2.939571e+00 197 164 139
-1.397375e+00 2.306954e-02 -2.909653e+00 184 153 132
-1.487706e+00 2.657938e-02 -2.910778e+00 253 226 206
-1.350287e+00 2.322033e-02 -2.917906e+00 155 119 95
1.136361e+00 9.693613e-02 -2.780863e+00 217 180 160
1.134651e+00 9.784902e-02 -2.779355e+00 217 180 160
-1.369042e+00 4.160587e-02 -2.909025e+00 160 126 101
-1.400032e+00 4.631095e-02 -2.904255e+00 248 218 192
-1.344479e+00 4.189590e-02 -2.917745e+00 222 191 161
-1.528346e+00 4.796545e-02 -2.914116e+00 225 193 172
-1.307085e+00 3.744474e-02 -2.926762e+00 191 161 137
-1.413837e+00 6.037753e-02 -2.903554e+00 255 229 207
-1.390154e+00 6.402112e-02 -2.900289e+00 246 214 189
9.276380e-01 1.014537e-01 -2.861172e+00 217 202 199
1.336050e+00 1.967010e-01 -2.723996e+00 221 185 149
-1.473971e+00 1.002455e-01 -2.896749e+00 255 247 223
-1.569626e+00 9.092441e-02 -2.915699e+00 215 183 160
-1.304625e+00 9.655506e-02 -2.912416e+00 236 206 178
1.283445e+00 1.921326e-01 -2.772623e+00 216 174 132
1.011986e+00 1.777733e-01 -2.818169e+00 255 254 231
1.281057e+00 2.049927e-01 -2.786687e+00 192 150 108
-1.567544e+00 1.226961e-01 -2.914459e+00 241 213 192
-1.180555e+00 1.229377e-01 -2.914897e+00 170 149 131
-1.180555e+00 1.229377e-01 -2.914897e+00 170 149 131
-1.363523e+00 1.555418e-01 -2.906617e+00 199 153 104
1.320626e+00 2.282684e-01 -2.817051e+00 229 198 164
-6.031202e-01 2.063531e-01 -2.854765e+00 255 239 213
-1.305475e+00 1.683076e-01 -2.920324e+00 181 137 92
1.251843e+00 2.499450e-01 -2.840561e+00 255 247 206
1.202099e-03 2.573803e-01 -2.818110e+00 226 203 162
-1.055533e+00 1.987641e-01 -2.907737e+00 232 200 159
-1.381488e+00 1.859824e-01 -2.938131e+00 177 127 78
-1.357738e+00 1.889298e-01 -2.946925e+00 185 134 87
-1.273933e+00 2.056905e-01 -2.947786e+00 235 189 139
-4.258086e-01 2.781197e-01 -2.849369e+00 246 230 197
-1.470461e+00 2.124957e-01 -2.968052e+00 185 138 94
-8.911953e-01 2.640900e-01 -2.908559e+00 249 221 182
-7.191939e-01 2.783872e-01 -2.892377e+00 233 213 179
-8.697432e-01 2.725607e-01 -2.912105e+00 229 203 166
-1.268140e+00 2.385425e-01 -2.969412e+00 232 186 136
-1.301282e+00 2.344243e-01 -2.979790e+00 241 194 142
1.181305e+00 3.180417e-01 -2.937873e+00 221 186 148
1.181411e+00 3.181349e-01 -2.938044e+00 221 186 148
-3.000782e-01 3.247297e-01 -2.889417e+00 238 217 184
-1.257287e+00 2.782037e-01 -2.988782e+00 247 200 150
1.158642e+00 3.347608e-01 -2.988594e+00 221 192 165
-1.064077e+00 3.074798e-01 -2.976690e+00 220 186 140
1.249975e+00 3.492294e-01 -3.006123e+00 200 174 139
-1.302972e+00 2.949355e-01 -3.000730e+00 188 140 92
-1.237736e+00 3.238208e-01 -3.023037e+00 144 102 59
-1.347300e+00 3.243043e-01 -3.015850e+00 239 194 152
1.290735e+00 9.770152e-03 -2.664251e+00 242 223 224
1.246054e+00 1.584961e-02 -2.723304e+00 202 176 153
-1.366718e+00 -8.377772e-02 -2.940850e+00 104 74 61
-1.377602e+00 -4.568499e-02 -2.927950e+00 232 206 191
-1.576287e+00 -4.107456e-02 -2.956759e+00 255 231 212
-1.473118e+00 -1.061510e-02 -2.912479e+00 189 154 134
-1.487436e+00 -9.116896e-03 -2.917002e+00 236 200 178
-1.487436e+00 -9.116896e-03 -2.917002e+00 236 200 178
-1.374973e+00 -2.032935e-03 -2.918747e+00 191 160 141
-1.487348e+00 8.156558e-03 -2.911968e+00 224 189 169
-1.355551e+00 6.301364e-03 -2.919443e+00 241 209 183
-1.418740e+00 1.771868e-02 -2.907272e+00 164 131 112
1.206673e+00 1.044240e-01 -2.760920e+00 228 193 173
9.402063e-01 3.935439e-02 -2.862153e+00 236 197 161
-1.525676e+00 3.140458e-02 -2.918550e+00 178 140 121
-1.482213e+00 3.990234e-02 -2.907053e+00 164 127 104
-1.482213e+00 3.990234e-02 -2.907053e+00 164 127 104
1.237194e+00 1.244111e-01 -2.746051e+00 255 219 183
-1.420832e+00 4.745072e-02 -2.901658e+00 249 223 200
1.336787e+00 1.765588e-01 -2.686348e+00 224 190 162
-1.406543e+00 5.454161e-02 -2.903193e+00 195 163 138
1.226325e+00 1.447216e-01 -2.763116e+00 247 207 172
1.271907e+00 1.681217e-01 -2.730603e+00 229 193 157
-1.351701e+00 7.185795e-02 -2.904174e+00 189 153 127
8.307221e-01 6.809074e-02 -2.899515e+00 227 211 199
8.731199e-01 8.070241e-02 -2.883588e+00 255 240 212
1.268410e+00 1.721765e-01 -2.746759e+00 248 209 170
