ply
format ascii 1.0
element face 0
property list uchar int vertex_indices
element vertex 907
property float x
property float y
property float z
property uchar diffuse_red
property uchar diffuse_green
property uchar diffuse_blue
end_header
-1.200755e+00 2.837454e-01 -2.980683e+00 252 212 168
-9.726180e-02 2.813179e-01 -2.834343e+00 253 229 194
-1.013890e+00 2.902332e-01 -2.949813e+00 242 225 197
-7.513646e-01 2.952667e-01 -2.907899e+00 238 223 192
6.375544e-02 2.823530e-01 -2.833356e+00 249 226 192
-1.237963e+00 3.036508e-01 -3.000206e+00 213 170 125
-2.107675e-01 3.057607e-01 -2.856943e+00 252 232 192
6.682413e-02 3.013948e-01 -2.850359e+00 221 198 164
-1.363188e+00 3.284018e-01 -3.018737e+00 227 184 150
-3.737043e-01 3.231431e-01 -2.887952e+00 251 226 186
-1.337929e+00 3.312599e-01 -3.017341e+00 241 196 158
-1.313113e+00 3.346438e-01 -3.019257e+00 173 128 86
-1.340730e+00 3.417345e-01 -3.017756e+00 207 164 129
-1.352937e+00 3.614486e-01 -3.036445e+00 161 121 87
1.066612e+00 2.503935e-01 -2.907097e+00 255 234 200
1.103987e+00 2.607866e-01 -2.900581e+00 254 224 182
1.173006e+00 3.289755e-01 -2.965448e+00 255 222 184
1.142638e+00 3.284187e-01 -2.980435e+00 228 193 155
1.074716e+00 3.021645e-02 -2.827558e+00 11 12 14
-1.479229e+00 3.920501e-01 -3.021405e+00 217 167 130
-1.327808e+00 3.479142e-01 -3.096831e+00 138 111 80
-1.050412e+00 3.225245e-01 -3.002516e+00 206 180 144
1.402273e+00 3.688071e-02 -2.636856e+00 255 241 245
-1.386481e+00 1.219495e-01 -2.896176e+00 254 221 187
-1.562022e+00 1.869299e-01 -2.956177e+00 200 164 137
-1.343988e+00 -5.750980e-02 -2.938867e+00 154 122 100
1.408767e+00 6.785567e-02 -2.637666e+00 208 171 149
1.407617e+00 6.893228e-02 -2.636328e+00 208 171 149
1.037609e+00 1.537120e-01 -2.819250e+00 255 255 245
1.379541e+00 1.933516e-01 -2.720774e+00 255 220 183
1.385510e+00 2.175310e-01 -2.762683e+00 180 139 98
-1.479845e+00 -8.279860e-02 -2.929539e+00 255 251 246
-1.145430e+00 8.845772e-02 -2.933295e+00 226 210 194
9.980408e-01 1.993123e-03 -2.866330e+00 25 24 22
1.131674e+00 2.534809e-01 -2.866097e+00 255 231 209
1.240365e+00 3.453136e-01 -3.028524e+00 229 200 164
-6.147601e-01 2.582346e-01 -2.866150e+00 255 241 209
-1.328405e+00 3.270351e-01 -3.017582e+00 211 163 115
1.052659e+00 2.861995e-01 -2.958255e+00 215 178 137
1.197990e+00 3.391994e-01 -2.981505e+00 177 148 114
1.410868e+00 5.359938e-02 -2.637777e+00 208 167 137
-1.565262e+00 1.647335e-01 -2.917434e+00 174 125 82
-1.136940e+00 1.475691e-01 -2.911133e+00 224 195 165
1.294132e+00 1.290140e-01 -2.681020e+00 238 211 181
1.120937e+00 2.037907e-01 -2.840645e+00 255 244 213
-8.824314e-01 3.018004e-01 -2.935706e+00 241 218 186
-1.443809e+00 3.756816e-01 -3.023763e+00 166 114 74
1.062016e+00 3.071954e-01 -3.019757e+00 225 199 164
-1.510367e+00 2.414439e-02 -2.907702e+00 199 159 135
-1.541689e+00 3.822170e-02 -2.922281e+00 199 164 142
1.267490e+00 8.030260e-03 -2.692562e+00 219 193 169
-1.276588e+00 1.195686e-01 -2.914753e+00 253 218 180
1.261355e+00 5.926279e-02 -2.697205e+00 226 190 156
1.205747e+00 5.119008e-02 -2.778361e+00 198 181 173
-1.194449e+00 2.217547e-01 -2.942574e+00 218 170 122
1.191226e+00 1.492601e-01 -2.784433e+00 255 241 211
-1.448630e+00 2.579485e-01 -2.990304e+00 203 151 112
-7.329326e-01 2.774856e-01 -2.892914e+00 236 220 184
1.128799e+00 1.902035e-01 -2.832334e+00 255 248 218
9.357634e-01 1.976212e-01 -2.853329e+00 218 186 147
-1.305032e+00 2.826588e-01 -2.998061e+00 200 150 102
-1.231175e+00 2.960630e-01 -2.991672e+00 214 166 117
1.182712e+00 2.111816e-01 -2.849480e+00 136 97 58
-1.137511e+00 3.117053e-01 -2.992128e+00 221 188 147
1.261525e+00 3.174926e-01 -2.883464e+00 255 241 196
1.215175e+00 3.260772e-01 -2.893991e+00 210 173 129
-1.466107e+00 -5.196400e-02 -2.919848e+00 233 201 181
-1.377496e+00 -1.925677e-03 -2.919830e+00 191 156 136
1.413971e+00 -4.426747e-02 -2.677292e+00 119 88 77
-1.624126e+00 7.055971e-02 -2.940534e+00 212 165 126
-1.356681e+00 9.126690e-02 -2.901805e+00 226 190 158
1.262882e+00 1.991875e-02 -2.694911e+00 210 184 157
-1.299575e+00 9.511230e-02 -2.916244e+00 244 209 178
1.282339e+00 7.274747e-02 -2.665744e+00 255 250 230
1.313395e+00 7.450510e-02 -2.672178e+00 233 217 201
-1.392801e+00 1.606685e-01 -2.908953e+00 215 165 114
1.303911e+00 1.080246e-01 -2.663580e+00 255 250 232
-1.458409e+00 1.716343e-01 -2.925609e+00 237 193 148
-1.549250e+00 1.793553e-01 -2.935577e+00 144 100 62
1.260938e+00 1.051333e-01 -2.703018e+00 255 232 204
-8.434694e-01 1.670014e-01 -2.881619e+00 198 181 161
-1.511411e+00 1.883967e-01 -2.945801e+00 160 120 84
-1.067128e+00 2.112812e-01 -2.914030e+00 255 239 196
1.209315e+00 1.334871e-01 -2.774707e+00 255 219 195
1.209315e+00 1.334871e-01 -2.774707e+00 255 219 195
1.292808e+00 1.755251e-01 -2.725891e+00 255 223 184
1.243310e+00 1.547350e-01 -2.765949e+00 255 230 194
-5.680333e-01 2.415634e-01 -2.855596e+00 255 251 217
-1.164074e+00 2.348114e-01 -2.944487e+00 239 202 150
-3.534124e-01 2.395407e-01 -2.837043e+00 220 204 171
-7.715502e-01 2.879894e-01 -2.905729e+00 255 251 216
1.018503e+00 1.967644e-01 -2.845780e+00 201 163 118
-1.300806e+00 2.829305e-01 -2.996500e+00 194 146 97
-9.537485e-01 2.964319e-01 -2.932416e+00 255 250 216
-1.272914e+00 2.914014e-01 -2.995272e+00 250 203 150
8.118914e-01 2.362359e-01 -2.881012e+00 255 249 216
1.103043e+00 2.309293e-01 -2.865378e+00 245 199 147
1.082662e+00 2.319295e-01 -2.880795e+00 255 242 197
-1.282562e+00 3.342269e-01 -3.024736e+00 226 180 131
1.226198e+00 2.811920e-01 -2.860289e+00 221 178 135
-1.433591e+00 3.743719e-01 -3.021527e+00 177 130 88
-1.451179e+00 3.790257e-01 -3.027962e+00 185 132 90
1.330092e+00 2.962345e-01 -2.935480e+00 195 157 117
1.288849e+00 3.340128e-01 -2.920895e+00 213 183 149
1.100538e+00 3.196583e-01 -3.035969e+00 223 197 170
1.180341e+00 3.344891e-01 -3.002774e+00 117 92 64
1.244010e+00 3.393483e-01 -2.993088e+00 155 122 85
-1.476069e+00 -4.284233e-02 -2.920911e+00 237 201 181
-1.352252e+00 -6.893593e-02 -2.953794e+00 138 106 85
-1.351944e+00 -6.834973e-02 -2.952922e+00 138 106 85
-1.410806e+00 -3.096079e-02 -2.913548e+00 230 204 191
-1.444142e+00 5.194351e-03 -2.907334e+00 227 191 169
-1.449772e+00 1.221046e-02 -2.906582e+00 224 185 163
-1.319043e+00 -4.044252e-02 -2.966658e+00 212 185 166
-1.456886e+00 2.277800e-02 -2.902183e+00 195 157 134
-1.370175e+00 1.688825e-03 -2.921067e+00 145 107 84
-1.427383e+00 2.441224e-02 -2.906531e+00 231 197 172
-1.542699e+00 4.840641e-02 -2.914889e+00 239 204 182
-1.401890e+00 5.364555e-02 -2.897190e+00 255 227 196
-1.284386e+00 1.567526e-02 -2.949878e+00 153 126 107
-1.284386e+00 1.567526e-02 -2.949878e+00 153 126 107
-1.372311e+00 6.111584e-02 -2.903949e+00 237 202 172
-1.592211e+00 6.974861e-02 -2.920928e+00 202 162 135
1.344962e+00 2.015459e-03 -2.650301e+00 216 196 197
-1.437007e+00 8.657053e-02 -2.896218e+00 254 221 194
-1.541708e+00 9.130407e-02 -2.913467e+00 186 152 125
1.374755e+00 2.137453e-02 -2.641066e+00 218 199 201
-1.438504e+00 9.605884e-02 -2.895223e+00 249 214 182
-1.360335e+00 1.070522e-01 -2.900343e+00 197 161 128
-1.555721e+00 1.294677e-01 -2.907727e+00 213 182 162
1.369174e+00 6.116324e-02 -2.636230e+00 251 232 228
-1.269046e+00 1.125031e-01 -2.916503e+00 235 205 171
1.398116e+00 7.120577e-02 -2.636556e+00 220 186 165
-1.281492e+00 1.286932e-01 -2.913540e+00 255 218 179
-1.373691e+00 1.556038e-01 -2.905255e+00 231 183 134
-1.467299e+00 1.613734e-01 -2.911136e+00 255 215 178
-1.338017e+00 1.612972e-01 -2.906961e+00 137 90 48
-1.467765e+00 1.698565e-01 -2.922218e+00 219 172 130
-1.193552e+00 1.558158e-01 -2.910373e+00 201 162 122
1.259694e+00 9.237689e-02 -2.702155e+00 255 248 222
-1.313615e+00 1.688944e-01 -2.919658e+00 237 189 140
-1.313325e+00 1.688612e-01 -2.919793e+00 237 189 140
-1.391107e+00 1.752075e-01 -2.924794e+00 194 142 92
9.828230e-01 2.731212e-02 -2.869059e+00 255 242 222
-1.435180e+00 1.796801e-01 -2.936193e+00 121 74 30
-1.469076e+00 1.883966e-01 -2.941637e+00 119 77 35
-1.155051e+00 1.825308e-01 -2.912646e+00 208 167 121
-1.136915e+00 1.864528e-01 -2.914721e+00 254 223 175
1.197873e+00 1.061469e-01 -2.765628e+00 215 180 160
-1.426883e+00 1.949798e-01 -2.958384e+00 123 74 33
-1.173548e+00 2.102168e-01 -2.929372e+00 254 210 162
-1.417203e+00 2.094982e-01 -2.983796e+00 224 172 120
-1.195880e+00 2.213217e-01 -2.938004e+00 210 162 114
1.203090e+00 1.446584e-01 -2.777309e+00 255 234 199
-1.182117e+00 2.265349e-01 -2.943306e+00 231 184 132
1.337736e+00 1.816372e-01 -2.702386e+00 244 210 175
-1.006923e+00 2.355167e-01 -2.916891e+00 255 246 205
-1.177558e+00 2.324582e-01 -2.947269e+00 223 177 125
-1.294842e+00 2.327302e-01 -2.972700e+00 210 161 105
-5.213401e-01 2.480025e-01 -2.852563e+00 255 242 206
1.296672e+00 1.822321e-01 -2.742079e+00 220 183 141
1.357715e+00 1.966327e-01 -2.713424e+00 214 180 142
9.690522e-01 1.811128e-01 -2.829914e+00 235 207 173
-1.291906e+00 2.589940e-01 -2.988373e+00 222 176 124
-4.113960e-01 2.752598e-01 -2.851467e+00 247 228 198
-4.113960e-01 2.752598e-01 -2.851467e+00 247 228 198
-6.070460e-01 2.765662e-01 -2.875201e+00 255 241 208
-6.671519e-01 2.792067e-01 -2.885222e+00 255 244 211
9.350539e-01 1.923718e-01 -2.839367e+00 219 187 148
9.351297e-01 1.922567e-01 -2.839475e+00 219 187 148
9.595684e-01 1.945621e-01 -2.837369e+00 255 239 202
9.265345e-01 1.967214e-01 -2.838878e+00 255 229 189
-1.263997e+00 2.701882e-01 -2.986414e+00 236 188 140
-1.313164e+00 2.728154e-01 -2.996240e+00 174 122 74
9.951516e-01 2.012303e-01 -2.865051e+00 226 191 151
-7.383937e-01 2.994639e-01 -2.909082e+00 255 247 211
-9.540890e-01 2.967759e-01 -2.942964e+00 233 209 173
-1.056205e+00 2.972514e-01 -2.963691e+00 239 207 161
-8.665804e-02 2.971446e-01 -2.845828e+00 255 233 199
-1.255211e+00 2.981573e-01 -2.997210e+00 234 188 138
-1.255046e+00 2.979761e-01 -2.997008e+00 234 188 138
-5.622625e-01 3.088915e-01 -2.890945e+00 233 211 172
-1.403451e+00 3.125080e-01 -3.002159e+00 249 209 173
8.478708e-01 2.273608e-01 -2.878051e+00 255 239 207
-2.941834e-02 3.040054e-01 -2.853905e+00 222 204 168
1.089275e+00 2.230575e-01 -2.869892e+00 198 151 99
-3.795717e-02 3.114632e-01 -2.859644e+00 244 221 187
-1.256370e+00 3.211735e-01 -3.012072e+00 184 138 88
-1.082271e+00 3.198877e-01 -2.995125e+00 164 130 85
-1.231075e+00 3.234760e-01 -3.013638e+00 139 101 58
-1.405914e+00 3.388540e-01 -3.009612e+00 133 89 60
-1.361964e+00 3.322211e-01 -3.018106e+00 146 101 60
-1.238862e+00 3.252087e-01 -3.019358e+00 129 86 40
-1.318968e+00 3.341736e-01 -3.020393e+00 238 190 142
-1.319084e+00 3.341719e-01 -3.020333e+00 238 190 142
-1.398266e+00 3.743834e-01 -3.030127e+00 127 80 42
-1.498309e+00 3.908116e-01 -3.070007e+00 236 194 154
1.069342e+00 2.974059e-01 -2.980512e+00 210 173 128
1.066188e+00 3.000003e-01 -2.986074e+00 254 223 181
1.195144e+00 3.274513e-01 -2.946431e+00 255 228 190
1.137357e+00 3.230938e-01 -2.966784e+00 255 242 201
1.275542e+00 3.370265e-01 -2.934704e+00 183 152 118
1.187585e+00 3.347102e-01 -2.989612e+00 132 107 77
1.192433e+00 3.336906e-01 -3.026658e+00 115 97 78
-1.417036e+00 -8.504734e-02 -2.929408e+00 248 223 211
-1.352215e+00 -8.586260e-02 -2.953202e+00 174 140 112
-1.416543e+00 -4.142186e-02 -2.914820e+00 236 213 199
-1.318871e+00 -8.455032e-02 -2.971665e+00 34 24 15
-1.381492e+00 -4.479450e-02 -2.928389e+00 238 211 192
-1.429460e+00 -1.960882e-02 -2.911929e+00 241 212 196
-1.378893e+00 -3.168437e-02 -2.926291e+00 215 183 168
-1.359432e+00 -3.119734e-02 -2.933701e+00 241 212 196
-1.545016e+00 -3.709710e-03 -2.928801e+00 255 224 201
-1.462364e+00 3.630577e-02 -2.901266e+00 221 189 164
-1.375356e+00 2.656274e-02 -2.910386e+00 237 202 170
-1.393238e+00 3.148198e-02 -2.907968e+00 248 214 187
-1.372779e+00 3.583706e-02 -2.907696e+00 245 209 178
-1.282078e+00 -1.627553e-02 -2.974510e+00 246 224 200
-1.435952e+00 5.498400e-02 -2.900403e+00 190 160 133
-1.519648e+00 6.671667e-02 -2.907336e+00 227 199 177
-1.324867e+00 5.086645e-02 -2.917723e+00 159 124 94
-1.576522e+00 8.106698e-02 -2.915613e+00 252 217 191
1.361420e+00 2.274590e-02 -2.640569e+00 218 202 202
1.329512e+00 1.689143e-02 -2.652453e+00 255 243 244
-1.302042e+00 8.314762e-02 -2.914954e+00 183 149 121
1.418688e+00 4.354479e-02 -2.640777e+00 255 238 237
-1.493179e+00 1.538116e-01 -2.905661e+00 237 199 160
1.239005e+00 4.949256e-02 -2.723930e+00 231 201 173
-1.070571e+00 1.226083e-01 -2.912125e+00 216 196 171
-1.312428e+00 1.491205e-01 -2.909033e+00 223 179 134
-1.347112e+00 1.551318e-01 -2.906192e+00 255 217 172
-1.485949e+00 1.632488e-01 -2.912558e+00 221 174 130
-1.470460e+00 1.670259e-01 -2.919263e+00 184 140 93
-1.470458e+00 1.669801e-01 -2.919276e+00 184 140 93
-1.162442e+00 1.591166e-01 -2.909257e+00 255 229 192
9.922438e-01 1.689266e-02 -2.865136e+00 212 181 152
-1.394720e+00 1.768597e-01 -2.928061e+00 238 188 135
1.314350e+00 1.244784e-01 -2.670088e+00 240 222 199
-1.186845e+00 1.728795e-01 -2.912492e+00 189 142 96
9.231123e-01 3.120049e-02 -2.874382e+00 203 179 155
-1.314356e+00 1.804057e-01 -2.935428e+00 99 51 4
-1.154279e+00 1.858715e-01 -2.914685e+00 255 218 173
1.195830e+00 8.846955e-02 -2.773655e+00 255 244 229
-1.288977e+00 1.898996e-01 -2.933513e+00 213 163 113
-1.288977e+00 1.898996e-01 -2.933513e+00 213 163 113
-1.379348e+00 1.893252e-01 -2.948662e+00 226 174 123
-1.379326e+00 1.893445e-01 -2.949032e+00 226 174 123
-1.190672e+00 1.949695e-01 -2.921022e+00 255 211 165
1.172204e+00 1.132659e-01 -2.773299e+00 208 181 166
1.188239e+00 1.145271e-01 -2.774194e+00 219 183 157
-1.169714e+00 2.047768e-01 -2.926329e+00 255 209 161
-1.374817e+00 2.011258e-01 -2.959609e+00 154 104 55
-1.417124e+00 1.996753e-01 -2.976325e+00 170 126 87
-1.210133e+00 2.119313e-01 -2.929579e+00 249 206 157
-1.245889e+00 2.093012e-01 -2.944655e+00 217 169 120
-1.221975e+00 2.135495e-01 -2.935662e+00 222 174 126
-1.350554e+00 2.082730e-01 -2.962120e+00 223 173 122
-1.189393e+00 2.142785e-01 -2.936390e+00 157 108 65
-1.339128e+00 2.114528e-01 -2.966537e+00 164 114 61
-1.304318e+00 2.143749e-01 -2.961361e+00 255 207 151
-1.324170e+00 2.147939e-01 -2.964398e+00 222 172 121
-3.863073e-01 2.325845e-01 -2.838017e+00 242 225 195
-1.118010e+00 2.334373e-01 -2.935047e+00 243 211 164
-1.226664e+00 2.304959e-01 -2.953953e+00 213 165 116
-5.724306e-01 2.429130e-01 -2.855664e+00 255 247 214
-1.396428e+00 2.253344e-01 -2.993062e+00 136 90 56
-1.190629e+00 2.348032e-01 -2.952202e+00 235 189 139
-5.020630e-01 2.459098e-01 -2.848347e+00 247 229 193
-1.308483e+00 2.313335e-01 -2.978941e+00 215 168 116
1.214768e+00 1.588457e-01 -2.791681e+00 239 206 161
-1.298014e+00 2.390882e-01 -2.979706e+00 209 162 108
-1.038358e+00 2.490089e-01 -2.929822e+00 232 209 167
-1.037898e+00 2.500825e-01 -2.928214e+00 232 209 167
1.123510e+00 1.624727e-01 -2.807194e+00 242 233 206
-1.331973e+00 2.399579e-01 -2.987159e+00 252 210 156
-1.391956e+00 2.391981e-01 -2.997600e+00 250 202 154
-1.200874e+00 2.495463e-01 -2.958576e+00 230 184 134
1.146475e+00 1.690439e-01 -2.815439e+00 228 214 185
-1.083504e+00 2.602165e-01 -2.942426e+00 255 240 192
1.035817e+00 1.753978e-01 -2.822113e+00 192 160 121
-8.576035e-01 2.670563e-01 -2.904946e+00 236 214 175
-8.576035e-01 2.670563e-01 -2.904946e+00 236 214 175
-8.436873e-01 2.686036e-01 -2.904118e+00 236 218 180
-5.739592e-01 2.749468e-01 -2.869502e+00 241 225 192
-1.330035e+00 2.655346e-01 -2.995925e+00 255 222 173
-8.830372e-01 2.807712e-01 -2.922161e+00 234 218 182
1.126370e+00 1.904925e-01 -2.833750e+00 255 250 218
-1.213625e+00 2.757284e-01 -2.978831e+00 231 185 135
-1.263493e+00 2.751126e-01 -2.987351e+00 175 127 78
1.118368e+00 1.953732e-01 -2.838326e+00 215 195 162
9.493281e-01 2.012327e-01 -2.851284e+00 213 181 142
-1.212523e+00 2.827412e-01 -2.981135e+00 208 162 113
-1.287643e+00 2.847294e-01 -2.994575e+00 203 155 106
-6.699393e-01 2.993487e-01 -2.898874e+00 212 196 162
-5.868420e-01 3.021406e-01 -2.888526e+00 224 199 159
-4.774161e-01 3.033823e-01 -2.874376e+00 255 241 208
-1.107809e+00 2.966381e-01 -2.972047e+00 246 203 152
-1.061409e+00 2.987902e-01 -2.965888e+00 255 224 178
-3.289104e-01 3.043678e-01 -2.864335e+00 228 205 167
-4.567880e-01 3.089037e-01 -2.878744e+00 228 208 175
-1.233925e+00 3.016176e-01 -2.995935e+00 255 209 157
3.089731e-01 2.809240e-01 -2.842824e+00 252 233 200
-1.095166e+00 3.079654e-01 -2.981224e+00 216 179 134
-9.953691e-01 3.123001e-01 -2.967309e+00 229 205 171
-1.352050e+00 3.151552e-01 -3.009813e+00 194 147 103
1.117667e+00 2.296108e-01 -2.857375e+00 245 202 157
-1.218093e+00 3.132748e-01 -3.002101e+00 253 211 161
-1.131921e-01 3.126446e-01 -2.868435e+00 240 217 183
-3.732045e-01 3.236342e-01 -2.886934e+00 245 222 181
-1.145244e+00 3.175729e-01 -3.000792e+00 201 167 129
-1.242517e+00 3.209757e-01 -3.009504e+00 231 184 134
-1.362653e+00 3.260846e-01 -3.015503e+00 203 160 118
-2.621049e-01 3.259199e-01 -2.882444e+00 187 167 130
-1.212747e+00 3.210905e-01 -3.014232e+00 221 187 143
-1.365855e+00 3.305501e-01 -3.016016e+00 221 177 138
1.128217e+00 2.479631e-01 -2.869986e+00 255 243 219
-1.254186e+00 3.306916e-01 -3.024138e+00 224 182 132
-1.349027e+00 3.469994e-01 -3.024936e+00 221 177 132
-6.204213e-02 3.352374e-01 -2.899270e+00 237 217 182
1.191377e+00 2.738737e-01 -2.862414e+00 197 151 106
-1.313734e+00 3.489710e-01 -3.037248e+00 191 148 105
1.191420e+00 2.810344e-01 -2.883512e+00 173 123 74
-1.413207e+00 3.757496e-01 -3.029448e+00 138 92 57
-1.412555e+00 3.765835e-01 -3.027720e+00 138 92 57
-1.465096e+00 3.886294e-01 -3.043771e+00 188 137 94
-1.438826e+00 3.894342e-01 -3.040556e+00 158 108 71
1.103285e+00 3.165542e-01 -2.981881e+00 215 183 147
1.254697e+00 3.334587e-01 -2.950021e+00 242 209 174
1.089496e+00 3.182819e-01 -3.006170e+00 244 215 183
1.163945e+00 3.328791e-01 -2.981570e+00 175 146 108
1.151979e+00 3.374176e-01 -3.019635e+00 187 170 154
-1.332150e+00 -9.292325e-02 -2.965759e+00 123 103 84
-1.373503e+00 -5.879712e-02 -2.929190e+00 222 195 178
-1.348575e+00 -5.860070e-02 -2.953866e+00 209 181 167
-1.427009e+00 -1.352912e-03 -2.909428e+00 208 175 157
-1.533752e+00 2.802949e-02 -2.919153e+00 171 136 116
-1.424494e+00 3.186442e-02 -2.907847e+00 211 178 152
-1.389270e+00 2.967625e-02 -2.907981e+00 213 179 153
-1.353176e+00 7.968724e-02 -2.904716e+00 253 238 206
1.295663e+00 -7.484559e-02 -2.794176e+00 197 174 142
1.378231e+00 2.196266e-02 -2.640675e+00 252 236 237
1.293231e+00 2.116970e-02 -2.667132e+00 173 153 143
-1.340140e+00 9.476500e-02 -2.906346e+00 196 163 132
-1.378687e+00 1.250836e-01 -2.891506e+00 255 236 201
-1.384497e+00 1.397138e-01 -2.896314e+00 238 204 167
-1.333610e+00 1.381800e-01 -2.903782e+00 188 148 112
1.434692e+00 7.831481e-02 -2.643597e+00 237 221 221
-1.551623e+00 1.619941e-01 -2.903894e+00 244 199 163
-1.305942e+00 1.430164e-01 -2.904376e+00 212 170 130
-1.306775e+00 1.454759e-01 -2.905752e+00 237 194 152
-1.512835e+00 1.839141e-01 -2.911313e+00 209 164 129
-1.461171e+00 1.737404e-01 -2.928739e+00 153 108 65
-1.405517e+00 1.752619e-01 -2.924586e+00 219 169 116
-1.440917e+00 1.749001e-01 -2.930545e+00 210 166 119
-1.291281e+00 1.711779e-01 -2.918077e+00 203 157 108
-1.349926e+00 1.730785e-01 -2.923457e+00 198 148 95
-1.419650e+00 1.777544e-01 -2.929467e+00 158 109 66
-1.254555e+00 1.732547e-01 -2.916982e+00 196 152 107
-1.163685e+00 1.716337e-01 -2.910761e+00 254 231 186
-1.402349e+00 1.787454e-01 -2.935651e+00 236 187 131
-1.167923e+00 1.763393e-01 -2.913502e+00 252 208 163
1.235171e+00 9.036839e-02 -2.744894e+00 152 113 80
-1.157886e+00 1.770036e-01 -2.912599e+00 255 220 175
-1.439940e+00 1.831959e-01 -2.941531e+00 171 126 81
-1.346638e+00 1.809283e-01 -2.935086e+00 219 167 117
-1.222836e+00 1.824456e-01 -2.918340e+00 211 164 120
-1.059079e+00 1.811661e-01 -2.902898e+00 236 208 169
-1.464632e+00 1.896643e-01 -2.942463e+00 177 134 92
-1.464666e+00 1.898434e-01 -2.942350e+00 177 134 92
-1.377909e+00 1.825622e-01 -2.943519e+00 184 132 82
-1.098247e+00 1.839243e-01 -2.906032e+00 255 243 204
-1.123524e+00 1.850557e-01 -2.911672e+00 237 204 156
-1.123524e+00 1.850557e-01 -2.911672e+00 237 204 156
-1.393886e+00 1.926590e-01 -2.942037e+00 252 203 152
-1.431685e+00 1.981864e-01 -2.956452e+00 151 103 57
-1.247025e+00 1.968713e-01 -2.935291e+00 200 152 104
1.201841e+00 1.088020e-01 -2.766910e+00 250 215 194
-1.115639e+00 1.983512e-01 -2.915840e+00 226 188 140
-1.260964e+00 2.002869e-01 -2.937097e+00 186 136 86
-1.184407e+00 2.016721e-01 -2.927483e+00 221 174 128
-1.191570e+00 2.045025e-01 -2.928260e+00 255 216 170
-1.105493e+00 2.050064e-01 -2.916137e+00 255 217 168
-1.235768e+00 2.039591e-01 -2.935178e+00 254 206 158
-1.062184e+00 2.084106e-01 -2.912038e+00 246 217 175
-7.742410e-01 2.092452e-01 -2.873314e+00 216 200 167
-1.348372e+00 2.050910e-01 -2.960283e+00 158 108 57
-1.348519e+00 2.051375e-01 -2.960436e+00 158 108 57
-1.322828e+00 2.086116e-01 -2.960896e+00 255 211 160
1.337585e+00 1.698927e-01 -2.690893e+00 210 185 156
1.325817e+00 1.711720e-01 -2.698014e+00 253 221 185
-1.246736e+00 2.169811e-01 -2.950694e+00 238 188 139
-1.172644e+00 2.214604e-01 -2.938669e+00 236 193 140
-2.812929e-01 2.179804e-01 -2.829775e+00 240 224 190
-1.407461e+00 2.207085e-01 -2.992329e+00 201 157 113
-1.407461e+00 2.207085e-01 -2.992329e+00 201 157 113
1.105865e+00 1.427991e-01 -2.806063e+00 255 245 221
-1.254819e+00 2.293726e-01 -2.959731e+00 242 192 142
-1.246836e+00 2.299614e-01 -2.960960e+00 202 152 103
-1.401858e+00 2.258721e-01 -2.997827e+00 104 60 29
-8.980051e-01 2.479796e-01 -2.903014e+00 238 209 165
-1.235467e+00 2.456908e-01 -2.969209e+00 210 163 111
-1.052616e+00 2.539234e-01 -2.933271e+00 255 233 192
1.349946e+00 2.012802e-01 -2.724685e+00 188 154 116
-1.056081e+00 2.560687e-01 -2.934011e+00 241 210 164
-9.595061e-01 2.585358e-01 -2.918839e+00 221 206 175
-1.193103e+00 2.526289e-01 -2.963754e+00 198 152 100
-1.193103e+00 2.526289e-01 -2.963754e+00 198 152 100
-1.203529e+00 2.525278e-01 -2.965031e+00 228 180 131
-1.288582e+00 2.503834e-01 -2.984411e+00 196 146 95
-1.162031e+00 2.569096e-01 -2.957640e+00 193 148 96
-1.162153e+00 2.566437e-01 -2.957955e+00 193 148 96
-1.203157e+00 2.554122e-01 -2.966359e+00 254 211 162
-1.290044e+00 2.522906e-01 -2.987006e+00 254 207 155
-1.208447e+00 2.579784e-01 -2.969252e+00 213 167 117
1.013961e+00 1.837431e-01 -2.825601e+00 253 225 187
-8.451036e-01 2.720305e-01 -2.905962e+00 255 236 199
-1.333693e+00 2.668825e-01 -2.996556e+00 192 146 97
1.008624e+00 1.905337e-01 -2.835069e+00 255 222 183
-1.373282e+00 2.751618e-01 -2.996711e+00 241 193 145
-1.054047e+00 2.835643e-01 -2.950048e+00 235 208 163
-1.054418e+00 2.831119e-01 -2.950944e+00 235 208 163
-1.117400e+00 2.823734e-01 -2.963792e+00 251 217 165
-1.361581e+00 2.814198e-01 -3.001416e+00 236 188 142
1.118301e+00 1.989418e-01 -2.839659e+00 255 250 219
-1.249099e+00 2.824885e-01 -2.988304e+00 242 194 145
-1.332722e+00 2.818778e-01 -3.002462e+00 220 172 124
-1.226543e+00 2.846852e-01 -2.985312e+00 229 185 136
-1.340986e+00 2.838503e-01 -3.001333e+00 238 187 140
-1.274517e+00 2.866138e-01 -2.993863e+00 226 179 125
-1.274653e+00 2.864628e-01 -2.994293e+00 226 179 125
1.128745e+00 2.001556e-01 -2.846737e+00 255 247 215
-1.062618e+00 2.954609e-01 -2.962378e+00 255 227 180
1.121086e+00 2.162126e-01 -2.840273e+00 224 201 169
1.064837e+00 2.139883e-01 -2.850142e+00 208 172 122
-3.429060e-01 3.105301e-01 -2.868475e+00 234 210 167
-1.387646e+00 3.076761e-01 -3.006551e+00 218 179 156
-9.506032e-01 3.082804e-01 -2.952570e+00 254 236 199
-2.586595e-01 3.178756e-01 -2.871940e+00 184 162 125
-1.300921e+00 3.145194e-01 -3.009413e+00 254 214 162
-1.373025e+00 3.197512e-01 -3.011432e+00 206 163 129
-1.373025e+00 3.197512e-01 -3.011432e+00 206 163 129
-1.277363e+00 3.159097e-01 -3.009583e+00 185 137 89
1.149209e+00 2.386401e-01 -2.854077e+00 233 203 175
-1.292805e+00 3.243621e-01 -3.014618e+00 204 156 108
-1.368847e+00 3.295630e-01 -3.014768e+00 174 132 92
-1.362385e+00 3.297456e-01 -3.015977e+00 231 188 146
-1.273322e+00 3.259555e-01 -3.015377e+00 254 209 159
-1.323916e+00 3.393673e-01 -3.023578e+00 186 140 92
-1.415258e+00 3.551649e-01 -3.013257e+00 189 145 108
-1.293107e+00 3.437387e-01 -3.038223e+00 143 102 61
1.125540e+00 2.669657e-01 -2.884471e+00 218 184 149
1.125540e+00 2.669657e-01 -2.884471e+00 218 184 149
1.169169e+00 2.724490e-01 -2.872781e+00 255 217 176
1.250560e+00 2.811612e-01 -2.865658e+00 241 218 177
1.191690e+00 2.805236e-01 -2.874162e+00 176 126 77
1.191139e+00 2.811597e-01 -2.873303e+00 176 126 77
1.190112e+00 2.805297e-01 -2.878168e+00 222 172 123
1.151508e+00 2.779780e-01 -2.894908e+00 250 212 175
-1.473848e+00 3.863364e-01 -3.046976e+00 173 124 83
1.336547e+00 2.655547e-01 -2.944044e+00 38 14 0
1.251941e+00 3.172731e-01 -2.879512e+00 215 178 133
1.044418e+00 2.908831e-01 -2.980424e+00 246 214 175
1.270390e+00 3.374403e-01 -2.946030e+00 170 138 100
1.202884e+00 3.345064e-01 -3.023984e+00 169 151 127
-1.624075e+00 1.934099e-01 -3.030246e+00 12 13 15
-1.392996e+00 2.697113e-01 -3.010150e+00 255 208 162
-1.559184e+00 1.966204e-01 -3.064985e+00 234 200 173
-1.262236e+00 2.470425e-01 -2.981173e+00 143 105 69
-1.261884e+00 2.459012e-01 -2.983605e+00 143 105 69
1.236454e+00 8.011173e-02 -2.727603e+00 228 192 160
-1.092583e+00 2.343058e-01 -2.931406e+00 255 223 177
-1.482654e+00 2.147676e-01 -2.981939e+00 224 180 137
-1.181654e+00 2.865292e-01 -2.979410e+00 255 222 174
-9.518147e-01 2.919531e-01 -2.936092e+00 255 232 198
-1.426089e+00 -6.063037e-02 -2.919280e+00 185 161 159
1.250964e+00 7.663803e-02 -2.708114e+00 251 221 195
-1.433811e+00 -5.419533e-03 -2.910713e+00 200 168 153
1.314418e+00 1.529008e-01 -2.688158e+00 255 235 209
-1.358017e+00 1.904934e-01 -2.943937e+00 185 134 87
-1.557309e+00 1.863628e-01 -2.954789e+00 204 168 145
-1.275893e+00 2.173006e-01 -2.955896e+00 238 191 139
-1.232196e+00 2.524470e-01 -2.971932e+00 199 153 104
1.040946e+00 2.938650e-01 -2.994430e+00 230 198 160
-1.283832e+00 2.552697e-01 -2.984148e+00 252 209 158
1.000380e+00 1.591097e-02 -2.869293e+00 229 203 176
1.210061e+00 1.011708e-01 -2.765754e+00 228 193 173
-1.317731e+00 1.858082e-01 -2.929111e+00 176 128 82
1.151994e+00 2.743013e-01 -2.882340e+00 231 192 157
-5.797457e-01 3.155942e-01 -2.899907e+00 255 234 195
-1.403216e+00 3.105256e-01 -3.003277e+00 239 197 162
1.304501e+00 9.543392e-02 -2.658624e+00 255 242 229
1.223257e+00 5.023689e-02 -2.761962e+00 237 206 185
1.224159e+00 4.948532e-02 -2.762570e+00 237 206 185
1.194411e+00 8.815524e-02 -2.771939e+00 255 240 231
-1.558795e+00 5.314515e-02 -2.917850e+00 252 220 197
1.019009e+00 9.880522e-02 -2.841950e+00 255 249 250
1.317210e+00 1.924164e-01 -2.742795e+00 249 211 172
1.207812e+00 1.743139e-01 -2.801464e+00 255 241 200
-1.534120e+00 1.631061e-01 -2.902123e+00 162 113 78
-1.110786e+00 1.837890e-01 -2.911855e+00 225 188 144
-1.131804e+00 2.448765e-01 -2.941754e+00 254 219 169
1.115772e+00 3.214112e-01 -2.988309e+00 254 222 188
-1.298751e+00 2.996438e-01 -3.002680e+00 225 177 131
-1.334282e+00 3.248418e-01 -3.015582e+00 200 153 107
-1.419256e+00 3.565222e-01 -3.015204e+00 196 152 117
1.296534e+00 1.844142e-02 -2.665451e+00 244 228 231
1.264006e+00 1.156671e-02 -2.699077e+00 178 151 124
1.243195e+00 7.120904e-02 -2.716136e+00 233 199 171
-1.538660e+00 2.217538e-02 -2.921725e+00 233 200 182
1.297982e+00 1.626509e-01 -2.705786e+00 225 187 150
1.191394e+00 1.643331e-01 -2.803557e+00 255 241 204
1.144871e+00 1.666840e-01 -2.809806e+00 255 247 217
1.010208e+00 1.852290e-01 -2.828445e+00 244 209 172
-1.352644e+00 1.372874e-01 -2.897539e+00 233 194 161
-1.526250e+00 1.407903e-01 -2.903322e+00 248 219 201
-1.526250e+00 1.407903e-01 -2.903322e+00 248 219 201
-1.285131e+00 1.364742e-01 -2.911299e+00 240 203 167
-1.496219e+00 1.521671e-01 -2.903342e+00 255 218 179
-1.508771e+00 1.591078e-01 -2.904962e+00 243 200 166
1.023698e+00 2.065169e-01 -2.851671e+00 224 185 142
-1.250642e+00 1.855167e-01 -2.925312e+00 203 156 110
-7.516371e-01 2.338143e-01 -2.874238e+00 255 236 203
-1.390432e+00 1.880823e-01 -2.943958e+00 165 115 66
-1.469192e+00 1.884772e-01 -2.941743e+00 135 92 57
-1.073366e+00 2.125401e-01 -2.915534e+00 229 199 157
-1.141303e-01 3.056757e-01 -2.853465e+00 228 208 173
-1.260007e+00 2.341092e-01 -2.967336e+00 196 150 101
-1.244045e+00 2.545315e-01 -2.976396e+00 255 221 171
1.203457e+00 3.206387e-01 -2.947444e+00 217 181 144
-1.327526e+00 2.499552e-01 -2.992354e+00 183 139 92
1.122280e+00 3.242509e-01 -2.991687e+00 251 217 182
-1.362683e+00 2.782553e-01 -2.999692e+00 196 147 104
-1.207870e+00 2.940992e-01 -2.987693e+00 217 175 125
-1.277402e+00 2.972224e-01 -3.004962e+00 142 98 59
-1.463747e+00 3.901858e-01 -3.041080e+00 188 142 94
-1.334830e+00 -7.918138e-02 -2.959939e+00 169 139 118
1.224649e+00 1.058817e-01 -2.756259e+00 239 198 166
-1.347167e+00 4.329282e-02 -2.915360e+00 233 200 169
1.086064e+00 1.338163e-01 -2.805379e+00 239 228 211
8.504819e-01 7.722559e-02 -2.892632e+00 234 209 180
-1.274397e+00 9.868896e-02 -2.914537e+00 244 218 191
-1.527143e+00 1.181576e-01 -2.901273e+00 255 242 226
-1.186526e+00 1.247872e-01 -2.915430e+00 186 165 146
1.075717e+00 1.867768e-01 -2.830997e+00 234 217 190
1.006101e+00 1.970054e-01 -2.836624e+00 252 210 168
1.056980e+00 2.014908e-01 -2.843703e+00 255 226 181
-1.454002e+00 1.647707e-01 -2.917482e+00 234 191 149
1.049671e+00 2.188301e-01 -2.872523e+00 255 231 189
-1.160061e+00 1.860822e-01 -2.918883e+00 204 162 115
-1.267606e+00 1.825660e-01 -2.924335e+00 230 183 137
-1.466372e+00 1.858659e-01 -2.937817e+00 174 132 94
-1.401222e+00 2.173137e-01 -2.988678e+00 230 180 127
-1.447513e+00 2.281085e-01 -2.981557e+00 247 205 157
-7.368089e-01 2.960440e-01 -2.907439e+00 236 218 182
1.056823e+00 2.960431e-01 -2.983101e+00 246 211 171
1.104561e+00 3.158933e-01 -2.983084e+00 224 190 155
-1.383687e+00 2.580454e-01 -2.995433e+00 219 173 124
-1.317837e+00 2.684544e-01 -2.996145e+00 229 185 136
-1.201340e+00 2.803129e-01 -2.980100e+00 212 169 118
-1.284515e+00 3.135156e-01 -3.010466e+00 222 177 131
-1.262063e+00 3.209743e-01 -3.011868e+00 202 158 109
-1.373505e+00 3.593012e-01 -3.026099e+00 155 113 78
-1.405982e+00 3.643534e-01 -3.017260e+00 214 168 131
1.259898e+00 2.882992e-02 -2.700120e+00 208 172 140
1.248937e+00 8.032803e-02 -2.709324e+00 251 220 192
1.268682e+00 1.185246e-01 -2.707882e+00 237 199 164
-1.367577e+00 2.308867e-02 -2.915790e+00 216 182 155
-1.417062e+00 4.396681e-02 -2.900315e+00 213 184 159
-1.440308e+00 5.020027e-02 -2.899183e+00 232 201 179
-1.405243e+00 6.035901e-02 -2.900783e+00 246 214 189
1.129050e+00 1.516010e-01 -2.805147e+00 255 242 212
-1.464183e+00 1.051234e-01 -2.895504e+00 254 225 195
-1.369366e+00 1.087713e-01 -2.896234e+00 200 164 138
-1.379408e+00 1.228054e-01 -2.894464e+00 252 219 188
8.924301e-01 1.918154e-01 -2.842516e+00 235 212 170
-1.150984e+00 1.842226e-01 -2.912539e+00 214 176 131
-1.399835e+00 1.889399e-01 -2.947225e+00 237 190 138
-1.213620e+00 2.047820e-01 -2.933671e+00 219 175 128
-7.525585e-01 2.747511e-01 -2.894840e+00 233 212 173
-1.310826e+00 2.412605e-01 -2.984615e+00 220 170 117
1.043188e+00 2.914498e-01 -2.979656e+00 241 207 168
-1.257061e+00 2.533298e-01 -2.983179e+00 224 179 137
1.171999e+00 3.311485e-01 -2.967208e+00 213 177 139
-1.412519e+00 3.606430e-01 -3.016225e+00 155 112 78
-1.488004e+00 9.472579e-02 -2.877074e+00 255 241 229
-1.455848e+00 2.815683e-01 -3.010843e+00 155 105 80
-1.545046e+00 1.897375e-01 -3.078029e+00 222 184 155
-1.265851e+00 1.821611e-01 -2.923816e+00 217 173 126
9.902220e-01 2.058878e-01 -2.836441e+00 235 196 157
-1.450244e+00 -7.382006e-02 -2.922616e+00 251 231 232
-1.515134e+00 -1.797104e-03 -2.915892e+00 184 147 129
-1.413572e+00 1.651926e-03 -2.915075e+00 178 151 140
-8.879149e-01 1.563860e-01 -2.887285e+00 238 223 201
-1.491492e+00 1.949260e-01 -2.932102e+00 233 197 162
1.284830e+00 9.007653e-02 -2.669297e+00 255 243 228
9.369636e-01 -9.263826e-03 -2.883398e+00 15 16 18
8.827818e-01 7.461552e-02 -2.881719e+00 255 232 199
8.425694e-01 7.028006e-02 -2.897833e+00 252 225 202
-9.634636e-01 1.896624e-01 -2.890204e+00 255 239 207
1.084373e+00 2.229908e-01 -2.868852e+00 227 180 134
1.073121e+00 2.378753e-01 -2.882787e+00 255 229 194
1.132643e+00 2.557775e-01 -2.873999e+00 255 226 203
1.132643e+00 2.557775e-01 -2.873999e+00 255 226 203
-3.897841e-01 2.674082e-01 -2.845886e+00 232 215 186
-1.097171e+00 2.323602e-01 -2.930853e+00 255 226 181
1.161934e+00 3.406784e-01 -2.975941e+00 197 167 136
1.349324e+00 -2.477672e-02 -2.661532e+00 205 185 185
-1.401854e+00 3.249660e-02 -2.903809e+00 195 167 149
-1.401854e+00 3.249660e-02 -2.903809e+00 195 167 149
9.375628e-01 -8.034100e-03 -2.883761e+00 18 19 21
1.009411e+00 9.015485e-02 -2.853422e+00 244 232 235
1.223751e+00 1.529042e-01 -2.779522e+00 214 173 142
-1.304991e+00 1.117817e-01 -2.910891e+00 156 120 94
1.241750e+00 1.700989e-01 -2.788833e+00 255 223 184
-1.185390e+00 1.364469e-01 -2.915699e+00 230 209 187
1.073496e+00 2.376872e-01 -2.882797e+00 255 229 194
1.106881e+00 2.620071e-01 -2.888850e+00 206 168 129
-1.174434e+00 2.238967e-01 -2.940793e+00 245 204 152
1.262097e+00 3.427421e-01 -2.984646e+00 201 168 133
-1.226501e+00 3.263466e-01 -3.028130e+00 204 178 141
-1.359166e+00 -7.861538e-02 -2.943863e+00 155 121 102
-1.581757e+00 -6.918151e-03 -2.941350e+00 232 212 201
-1.600365e+00 4.892978e-02 -2.929935e+00 228 189 158
1.191142e+00 1.260186e-01 -2.770820e+00 217 180 162
1.329333e+00 2.075609e-01 -2.765584e+00 250 211 178
-1.482826e+00 1.408166e-01 -2.904980e+00 253 214 181
9.853877e-02 2.052267e-01 -2.829552e+00 213 194 162
-1.563938e+00 1.668294e-01 -2.914586e+00 165 117 77
1.133164e+00 2.531885e-01 -2.866698e+00 255 235 214
-3.461294e-01 2.593502e-01 -2.840289e+00 255 247 217
-1.044976e-01 2.727228e-01 -2.830308e+00 255 240 204
-7.635326e-01 2.916496e-01 -2.903572e+00 255 249 214
1.106467e+00 3.095732e-01 -2.972434e+00 255 219 180
1.321154e+00 -3.378797e-02 -2.681784e+00 175 152 149
-1.435537e+00 -6.041935e-02 -2.917245e+00 244 225 227
-1.435537e+00 -6.041935e-02 -2.917245e+00 244 225 227
-1.479766e+00 -6.703266e-02 -2.927865e+00 155 120 108
-1.390200e+00 -5.930581e-02 -2.923108e+00 243 223 216
-1.626226e+00 -8.425904e-02 -3.010156e+00 235 226 229
1.207227e+00 4.601078e-02 -2.780791e+00 184 166 160
-1.488572e+00 2.664433e-02 -2.910315e+00 253 226 209
-1.609677e+00 1.325747e-02 -2.943104e+00 191 155 127
-1.490132e+00 3.656448e-02 -2.912740e+00 180 141 121
-1.625842e+00 2.696817e-02 -2.945581e+00 238 203 175
-1.464621e+00 7.994390e-02 -2.895369e+00 213 185 164
-1.492259e+00 8.234123e-02 -2.901218e+00 255 238 223
1.172140e+00 1.257997e-01 -2.775189e+00 255 243 227
1.311436e+00 1.896292e-01 -2.731139e+00 208 170 133
-1.290839e+00 9.863339e-02 -2.914356e+00 246 217 189
-1.610467e+00 1.004343e-01 -2.931314e+00 158 104 61
-1.408219e+00 1.313848e-01 -2.890165e+00 255 226 196
8.208642e-01 9.675608e-02 -2.921692e+00 221 209 209
8.475614e-01 1.725229e-01 -2.824856e+00 255 252 234
-1.597008e+00 1.271791e-01 -2.926957e+00 243 202 171
1.071965e+00 2.153165e-01 -2.848479e+00 255 228 191
-1.225672e+00 1.764634e-01 -2.917080e+00 227 184 142
-9.391093e-01 2.023509e-01 -2.890456e+00 255 242 209
-1.398526e+00 1.822579e-01 -2.925502e+00 223 175 126
-1.384385e+00 1.791679e-01 -2.932481e+00 231 181 132
-3.095098e-01 2.730744e-01 -2.842317e+00 224 207 177
1.219275e+00 2.810017e-01 -2.858965e+00 229 181 141
-7.330946e-01 2.761011e-01 -2.895551e+00 235 216 182
-1.539454e+00 2.134327e-01 -3.026951e+00 201 166 136
1.215716e+00 3.312148e-01 -2.926207e+00 251 217 180
-1.521559e+00 2.281020e-01 -3.027710e+00 232 189 154
-1.340351e+00 2.638363e-01 -2.994205e+00 254 208 162
-9.390977e-01 3.110564e-01 -2.953261e+00 248 229 199
-9.920924e-01 3.059084e-01 -2.966104e+00 255 235 203
-1.153955e+00 3.005702e-01 -2.984472e+00 253 221 180
-1.282388e+00 2.953403e-01 -3.001304e+00 111 75 51
-1.217601e+00 3.105046e-01 -3.000324e+00 233 195 148
-9.119346e-01 3.285052e-01 -3.024005e+00 170 156 131
1.329878e+00 -5.235507e-02 -2.689144e+00 171 151 147
1.282585e+00 -2.327916e-02 -2.693765e+00 217 202 199
1.281943e+00 -2.746100e-02 -2.709925e+00 114 89 66
1.289408e+00 -7.039820e-02 -2.801129e+00 175 151 123
-1.468520e+00 -2.693555e-02 -2.918308e+00 226 198 187
-1.333663e+00 -6.246451e-02 -2.961562e+00 163 137 120
-1.333663e+00 -6.246451e-02 -2.961562e+00 163 137 120
-1.582286e+00 -2.871181e-02 -2.953009e+00 155 121 111
-1.582530e+00 -1.392873e-02 -2.944812e+00 246 228 214
-1.519408e+00 7.741787e-03 -2.917555e+00 180 144 130
-1.548872e+00 1.992106e-02 -2.928379e+00 155 114 102
1.216322e+00 6.539699e-02 -2.764467e+00 237 216 215
1.294985e+00 1.283011e-01 -2.681438e+00 234 205 180
-1.559198e+00 3.402483e-02 -2.922428e+00 237 208 190
1.135259e+00 8.508966e-02 -2.791107e+00 237 222 222
-1.570415e+00 6.097503e-02 -2.919835e+00 212 184 163
1.246592e+00 1.425174e-01 -2.752846e+00 184 147 118
1.218353e+00 1.374615e-01 -2.763529e+00 214 175 146
-1.616395e+00 8.426308e-02 -2.934472e+00 251 206 167
-1.320358e+00 1.381133e-01 -2.906498e+00 191 154 125
1.277803e+00 2.055455e-01 -2.797119e+00 245 205 164
-1.227368e+00 1.424853e-01 -2.914574e+00 184 143 111
1.402417e+00 2.187056e-01 -2.813679e+00 157 130 105
-1.480872e+00 1.589670e-01 -2.915638e+00 181 137 98
-7.672928e-01 1.873938e-01 -2.870673e+00 251 239 217
-1.253888e+00 1.738247e-01 -2.917271e+00 192 149 106
-9.018270e-01 2.007087e-01 -2.886406e+00 255 237 204
-1.329389e+00 1.836364e-01 -2.930141e+00 180 135 90
-9.143720e-01 2.242699e-01 -2.898613e+00 235 211 173
-9.143720e-01 2.242699e-01 -2.898613e+00 235 211 173
8.124312e-01 2.533620e-01 -2.907797e+00 255 238 211
1.118823e+00 2.716952e-01 -2.908366e+00 255 226 192
-1.690594e-01 2.911885e-01 -2.854864e+00 236 212 176
-1.431228e+00 2.045400e-01 -2.977862e+00 210 158 111
-1.463166e+00 2.153665e-01 -2.965769e+00 234 187 143
1.173229e+00 3.014362e-01 -2.917896e+00 254 219 185
-1.363101e+00 2.228678e-01 -2.987162e+00 132 84 47
2.627429e-01 3.214552e-01 -2.899543e+00 207 188 155
-9.700286e-01 2.899567e-01 -2.941789e+00 255 236 203
1.187784e+00 3.347479e-01 -2.963828e+00 227 193 156
1.249283e+00 3.341870e-01 -2.968578e+00 187 152 120
1.088117e+00 3.182884e-01 -3.001047e+00 244 213 184
-1.253036e+00 2.701347e-01 -2.982230e+00 226 184 136
-2.589591e-02 3.452526e-01 -2.925551e+00 178 163 139
-1.330693e+00 2.697593e-01 -2.999183e+00 115 70 31
-1.383913e+00 2.736521e-01 -2.996844e+00 236 189 147
-1.192003e+00 2.915909e-01 -2.983926e+00 250 213 168
1.245826e+00 3.443853e-01 -3.027111e+00 223 192 154
-1.450644e+00 3.800127e-01 -3.024546e+00 182 130 90
-1.351954e+00 -9.719482e-02 -2.952764e+00 218 190 173
1.274200e+00 -8.924603e-03 -2.693661e+00 163 142 121
-1.485080e+00 -5.769463e-02 -2.927513e+00 248 224 221
-1.508160e+00 -6.092377e-02 -2.933322e+00 237 217 219
-1.508160e+00 -6.092377e-02 -2.933322e+00 237 217 219
-1.466618e+00 -5.320633e-02 -2.921705e+00 221 189 177
-1.506519e+00 -5.343289e-02 -2.932548e+00 190 161 154
-1.448731e+00 -4.110511e-02 -2.913807e+00 230 203 196
1.289200e+00 -6.858664e-02 -2.824543e+00 162 138 109
-1.378392e+00 -4.640634e-02 -2.928633e+00 224 202 191
-1.549810e+00 -4.253155e-02 -2.944823e+00 209 179 168
-1.537580e+00 -3.115036e-02 -2.936799e+00 221 188 171
1.284761e+00 1.185800e-01 -2.683004e+00 237 206 178
-1.571850e+00 2.632144e-02 -2.926044e+00 213 187 172
1.214368e+00 8.057068e-02 -2.761331e+00 211 179 168
-1.481037e+00 4.395804e-02 -2.907171e+00 178 146 131
-1.506664e+00 4.616141e-02 -2.909180e+00 119 82 69
1.322766e+00 1.461481e-01 -2.675501e+00 255 242 221
-1.536358e+00 4.748645e-02 -2.911453e+00 192 161 143
-1.421489e+00 5.986781e-02 -2.902812e+00 246 225 208
1.225630e+00 1.108521e-01 -2.758941e+00 196 157 126
9.126159e-01 4.243664e-02 -2.870922e+00 255 230 210
-1.552033e+00 7.529375e-02 -2.913494e+00 157 122 102
-1.349912e+00 7.784164e-02 -2.905937e+00 233 203 177
-1.570260e+00 8.237155e-02 -2.914779e+00 246 219 200
-1.577352e+00 7.844635e-02 -2.920433e+00 236 203 186
-1.416597e+00 9.752450e-02 -2.891942e+00 199 168 147
-1.292441e+00 8.238775e-02 -2.916833e+00 218 190 168
9.294788e-01 7.924552e-02 -2.873582e+00 255 249 248
-1.541171e+00 9.276965e-02 -2.912761e+00 182 150 135
1.253874e+00 1.564415e-01 -2.758297e+00 247 211 179
8.682621e-01 8.204401e-02 -2.882632e+00 255 237 219
9.826730e-01 1.170652e-01 -2.838496e+00 223 211 212
-1.527268e+00 1.108512e-01 -2.904778e+00 221 202 192
-1.529102e+00 1.193721e-01 -2.903382e+00 254 234 223
-1.583914e+00 1.124546e-01 -2.915776e+00 248 212 186
-1.535902e+00 1.234004e-01 -2.907175e+00 120 93 82
-1.316493e+00 1.234692e-01 -2.905299e+00 224 190 162
-1.316493e+00 1.234692e-01 -2.905299e+00 224 190 162
-1.299801e+00 1.257779e-01 -2.907890e+00 212 174 145
-1.608144e+00 1.195916e-01 -2.934685e+00 198 145 101
8.777951e-01 1.850009e-01 -2.838315e+00 255 235 204
8.769007e-01 1.897062e-01 -2.843517e+00 221 199 162
-1.107642e+00 1.561591e-01 -2.906206e+00 252 226 199
-1.170584e+00 1.559109e-01 -2.909663e+00 247 217 182
-1.572313e+00 1.595649e-01 -2.913930e+00 254 214 186
-1.419809e+00 1.618479e-01 -2.913434e+00 237 202 161
-1.091721e+00 1.754817e-01 -2.905052e+00 255 231 198
-1.518638e+00 1.743222e-01 -2.909400e+00 128 83 52
1.038732e+00 2.134348e-01 -2.854383e+00 255 213 173
-9.383766e-01 1.935206e-01 -2.890362e+00 233 214 182
-3.032652e-01 2.462937e-01 -2.839343e+00 255 248 214
-1.490203e+00 1.934599e-01 -2.929096e+00 215 181 144
-1.294608e+00 1.856967e-01 -2.946001e+00 224 180 131
-1.400915e-01 2.755798e-01 -2.832733e+00 255 236 201
-8.893283e-01 2.332014e-01 -2.894753e+00 255 232 190
-1.370688e+00 1.985304e-01 -2.956142e+00 153 100 57
-4.171620e-01 2.784294e-01 -2.851308e+00 229 212 184
-1.318601e+00 2.104475e-01 -2.960061e+00 242 194 145
-8.899224e-01 2.562768e-01 -2.905377e+00 217 186 147
-8.188030e-01 2.637365e-01 -2.899543e+00 239 221 185
-8.188355e-01 2.643562e-01 -2.898882e+00 239 221 185
-8.114534e-02 3.039646e-01 -2.855158e+00 254 235 202
1.171459e+00 3.003549e-01 -2.927506e+00 218 186 148
-1.363289e+00 2.284159e-01 -2.989456e+00 248 201 156
-1.272072e+00 2.392279e-01 -2.975866e+00 231 187 138
-1.284851e+00 2.438791e-01 -2.981873e+00 235 192 141
-1.370144e+00 2.429859e-01 -2.988649e+00 221 174 130
-1.370144e+00 2.429859e-01 -2.988649e+00 221 174 130
-5.389179e-01 3.178452e-01 -2.897580e+00 255 241 205
-8.099573e-01 3.041299e-01 -2.929823e+00 255 245 209
-7.889895e-01 3.228021e-01 -2.943479e+00 251 232 199
-1.402239e+00 2.895896e-01 -2.999316e+00 159 114 82
-1.334220e+00 3.125498e-01 -3.009993e+00 194 150 104
-1.270515e+00 3.369497e-01 -3.026705e+00 209 171 125
-1.328617e+00 3.490662e-01 -3.031273e+00 209 165 120
-1.495893e+00 3.888390e-01 -3.060420e+00 190 145 106
-1.478435e+00 3.963497e-01 -3.056253e+00 219 176 136
-1.452123e+00 3.991737e-01 -3.074720e+00 142 108 80
-1.502426e+00 -7.609769e-02 -2.938152e+00 127 103 101
-1.490553e+00 -6.262909e-02 -2.929637e+00 241 223 221
-1.387976e+00 -4.005306e-02 -2.920905e+00 141 116 105
-1.331118e+00 -6.585259e-02 -2.964108e+00 166 139 120
1.302851e+00 7.704402e-02 -2.654176e+00 255 242 232
1.284147e+00 7.198326e-02 -2.666732e+00 255 239 225
-1.514137e+00 -2.281963e-02 -2.925710e+00 218 181 163
-1.592059e+00 -3.269248e-02 -2.957737e+00 234 210 199
-1.544535e+00 -6.102969e-03 -2.930838e+00 238 210 198
-1.544535e+00 -6.102969e-03 -2.930838e+00 238 210 198
-1.560423e+00 -5.845607e-03 -2.933782e+00 249 227 213
-1.605349e+00 -1.842446e-02 -2.953096e+00 184 156 141
-1.475142e+00 1.505956e-02 -2.907334e+00 217 184 167
-1.402066e+00 1.469208e-02 -2.909431e+00 212 185 166
-1.450553e+00 2.079832e-02 -2.903450e+00 171 142 126
1.215318e+00 3.266409e-02 -2.782793e+00 154 131 116
1.278620e+00 1.102752e-01 -2.680702e+00 232 202 174
-1.611227e+00 -3.918789e-03 -2.952601e+00 233 197 171
-1.611227e+00 -3.918789e-03 -2.952601e+00 233 197 171
1.208388e+00 5.068287e-02 -2.779625e+00 184 167 165
1.236657e+00 9.120860e-02 -2.744473e+00 164 127 101
-1.373374e+00 3.799335e-02 -2.912108e+00 162 131 111
1.237659e+00 9.851093e-02 -2.742904e+00 218 183 155
1.188128e+00 7.797490e-02 -2.776510e+00 255 245 244
-1.400728e+00 5.762208e-02 -2.902781e+00 241 213 192
-1.500691e+00 5.910709e-02 -2.905732e+00 207 187 176
-1.372016e+00 6.233325e-02 -2.902856e+00 213 182 161
-1.480195e+00 6.666102e-02 -2.901684e+00 255 229 215
-1.501510e+00 6.556828e-02 -2.903952e+00 242 219 211
1.309697e+00 1.649285e-01 -2.697707e+00 249 215 179
-1.317517e+00 6.161866e-02 -2.917090e+00 237 209 185
-1.394279e+00 7.737513e-02 -2.898395e+00 232 201 180
-1.586823e+00 7.231937e-02 -2.919441e+00 196 161 141
1.179442e+00 1.315577e-01 -2.772421e+00 207 167 147
-1.533586e+00 8.886382e-02 -2.904675e+00 255 222 202
-1.402373e+00 9.487723e-02 -2.894191e+00 222 191 170
1.349748e+00 1.868442e-01 -2.704229e+00 202 167 135
-1.614531e+00 7.724421e-02 -2.932110e+00 147 99 63
-1.364924e+00 1.006374e-01 -2.897062e+00 168 135 116
-1.366369e+00 1.134573e-01 -2.896066e+00 147 115 93
-1.582387e+00 1.205302e-01 -2.916516e+00 204 166 142
-1.399091e+00 1.384218e-01 -2.894298e+00 220 184 150
1.303308e+00 2.024960e-01 -2.775145e+00 254 220 182
1.382024e+00 2.168457e-01 -2.766469e+00 182 140 105
1.134338e+00 1.860798e-01 -2.828915e+00 210 191 159
1.288620e+00 2.113050e-01 -2.803954e+00 208 170 130
-1.587802e+00 1.464202e-01 -2.927082e+00 239 196 162
-1.602792e+00 1.434519e-01 -2.937079e+00 209 158 113
1.364423e-01 2.201692e-01 -2.820897e+00 206 188 152
-1.317612e+00 1.661272e-01 -2.916303e+00 147 104 62
-1.067609e+00 1.830693e-01 -2.905467e+00 227 195 156
-1.108851e+00 1.824676e-01 -2.906412e+00 255 224 185
-1.510737e+00 1.800259e-01 -2.911809e+00 136 91 60
-3.536697e-01 2.314353e-01 -2.834259e+00 228 209 177
-1.438685e+00 1.727222e-01 -2.927721e+00 178 135 92
1.089095e+00 2.266398e-01 -2.865613e+00 204 157 111
-1.390477e+00 1.765219e-01 -2.933890e+00 202 154 105
-8.274807e-01 2.217710e-01 -2.881519e+00 206 187 155
-9.402352e-01 2.181415e-01 -2.897780e+00 230 210 177
7.634869e-02 2.764372e-01 -2.829030e+00 238 222 188
-1.162031e+00 2.076075e-01 -2.927486e+00 225 182 137
-1.397676e+00 1.932491e-01 -2.952700e+00 115 69 35
-6.658382e-01 2.641427e-01 -2.875081e+00 255 241 208
-1.259211e+00 2.118116e-01 -2.952288e+00 185 140 94
-1.038048e+00 2.500681e-01 -2.928500e+00 227 199 160
1.218141e+00 3.199327e-01 -2.883216e+00 255 220 178
-8.983684e-01 2.740416e-01 -2.917337e+00 255 240 208
-1.155424e+00 2.499217e-01 -2.953062e+00 253 217 169
-1.558121e+00 1.962154e-01 -3.041169e+00 232 198 171
1.228276e+00 3.264437e-01 -2.912721e+00 227 191 155
-1.395351e+00 2.303878e-01 -2.992670e+00 202 157 124
-7.694725e-01 2.936735e-01 -2.908957e+00 241 228 193
-1.311143e+00 2.403764e-01 -2.983198e+00 209 163 110
-1.275626e+00 2.434500e-01 -2.984633e+00 210 166 119
1.086494e+00 3.080160e-01 -2.984388e+00 249 215 179
-6.701649e-02 3.326982e-01 -2.896341e+00 218 200 164
-1.266144e+00 2.603416e-01 -2.980619e+00 180 138 95
1.095223e+00 3.252462e-01 -3.026584e+00 214 184 160
-1.067741e+00 3.037716e-01 -2.971689e+00 244 207 162
-1.067741e+00 3.037716e-01 -2.971689e+00 244 207 162
-1.334748e+00 2.885534e-01 -3.003757e+00 239 192 150
-1.261849e+00 2.967775e-01 -2.998675e+00 168 123 81
-1.413431e+00 2.920138e-01 -3.000277e+00 233 190 158
-8.391110e-01 3.317453e-01 -2.976290e+00 218 199 167
-1.212196e+00 3.221277e-01 -3.019370e+00 238 206 165
-1.373148e+00 3.222803e-01 -3.011709e+00 192 149 115
-1.484406e+00 3.803467e-01 -3.040482e+00 227 179 141
-1.378308e+00 3.804437e-01 -3.054166e+00 134 99 69
-1.459891e+00 3.937275e-01 -3.038301e+00 207 157 119
-1.460461e+00 3.988838e-01 -3.072847e+00 151 118 90
-1.409259e+00 -8.707629e-02 -2.931647e+00 192 173 169
1.282314e+00 -3.717584e-02 -2.712472e+00 126 104 82
-1.443825e+00 -5.776049e-02 -2.917300e+00 244 224 225
-1.333436e+00 -9.459036e-02 -2.961503e+00 225 213 201
-1.521501e+00 -4.688890e-02 -2.935847e+00 187 158 144
-1.521371e+00 -4.872068e-02 -2.938100e+00 187 158 144
-1.434952e+00 -2.973626e-02 -2.912888e+00 242 214 210
1.266897e+00 4.544708e-02 -2.690053e+00 141 107 79
-1.582341e+00 -3.434480e-02 -2.952293e+00 242 216 201
-1.551854e+00 -1.015842e-02 -2.934106e+00 248 222 209
-1.415547e+00 6.098359e-03 -2.908957e+00 160 133 123
-1.381658e+00 2.602677e-04 -2.916372e+00 187 161 144
-1.379068e+00 2.233707e-03 -2.918126e+00 246 219 199
1.211467e+00 3.125003e-02 -2.787966e+00 194 172 158
1.311782e+00 1.300138e-01 -2.671823e+00 255 244 226
-1.429082e+00 4.141988e-02 -2.903690e+00 251 226 204
-1.616890e+00 1.415502e-02 -2.949230e+00 181 141 115
