ply
format ascii 1.0
element face 0
property list uchar int vertex_indices
element vertex 739
property float x
property float y
property float z
property uchar diffuse_red
property uchar diffuse_green
property uchar diffuse_blue
end_header
-1.353086e+00 3.520634e-01 -2.995948e+00 227 179 131
1.283994e+00 8.058652e-02 -2.691592e+00 223 185 146
-1.420290e+00 3.471902e-01 -2.976190e+00 193 149 110
-1.390329e+00 2.678220e-01 -2.968375e+00 250 200 147
1.241469e+00 9.078423e-02 -2.756903e+00 239 201 164
-1.415365e+00 3.048793e-01 -2.974012e+00 215 168 126
-1.415365e+00 3.048793e-01 -2.974012e+00 215 168 126
-1.439498e+00 2.553606e-01 -2.957341e+00 226 175 129
1.282543e+00 1.038228e-01 -2.700390e+00 255 227 192
-1.364417e+00 2.744285e-01 -2.969614e+00 248 197 142
1.131355e+00 1.370341e-01 -2.810563e+00 255 231 198
-1.192691e+00 1.976314e-01 -2.895099e+00 190 142 96
1.273750e+00 7.087392e-02 -2.701840e+00 247 211 177
-1.296099e+00 1.020848e-01 -2.889284e+00 180 141 98
-1.379499e+00 3.734868e-03 -2.889606e+00 245 207 170
-1.293553e+00 3.119234e-01 -2.976928e+00 171 123 74
-1.426669e+00 3.207947e-01 -2.972788e+00 192 148 113
-1.403314e+00 2.724167e-01 -2.969031e+00 200 148 101
1.219558e+00 1.210007e-01 -2.773894e+00 252 215 186
1.223167e+00 1.069229e-01 -2.769461e+00 255 219 193
-1.364022e+00 1.712309e-01 -2.878984e+00 194 147 95
-1.545357e+00 1.498178e-01 -2.870955e+00 229 190 157
-1.398947e+00 3.943930e-02 -2.881297e+00 164 122 82
-1.408458e+00 3.366215e-02 -2.880672e+00 212 173 134
-1.453620e+00 3.622428e-03 -2.880380e+00 118 75 40
-1.390912e+00 -2.783556e-02 -2.892940e+00 158 119 88
-1.355752e+00 -7.121556e-02 -2.928388e+00 161 120 81
-1.415956e+00 -4.563148e-02 -2.890670e+00 228 193 163
1.195151e+00 2.365235e-01 -2.860856e+00 221 183 150
-1.301255e+00 2.944004e-01 -2.971365e+00 236 188 134
-1.377545e+00 2.823471e-01 -2.973741e+00 232 182 133
1.135677e+00 1.443715e-01 -2.811146e+00 201 167 132
1.271341e+00 1.195152e-01 -2.720229e+00 255 216 173
1.263606e+00 8.435249e-02 -2.713155e+00 255 231 204
1.262876e+00 7.866017e-02 -2.716285e+00 171 127 94
-1.514677e+00 1.711492e-01 -2.873818e+00 100 55 15
-1.342985e+00 1.523832e-01 -2.874733e+00 229 184 138
-1.309639e+00 1.404049e-01 -2.880753e+00 217 175 132
-1.429349e+00 6.792629e-02 -2.871769e+00 254 216 175
-1.309063e+00 -3.307151e-02 -2.949378e+00 91 55 21
-1.437257e+00 1.220069e-02 -2.881170e+00 177 137 103
-1.343571e+00 -6.776938e-02 -2.928137e+00 178 139 103
-1.366885e+00 3.342179e-01 -2.987732e+00 124 80 36
-1.384996e+00 3.294937e-01 -2.984387e+00 213 171 137
-1.411970e+00 3.281658e-01 -2.978072e+00 139 95 58
-1.362540e+00 3.023455e-01 -2.978725e+00 181 131 82
1.228480e+00 1.197878e-01 -2.773054e+00 201 158 124
1.218256e+00 1.156694e-01 -2.775810e+00 244 207 180
1.249249e+00 1.220390e-01 -2.758753e+00 205 163 123
1.275336e+00 9.327272e-02 -2.706253e+00 223 189 154
-1.201620e+00 1.559311e-01 -2.890364e+00 231 192 152
1.257298e+00 6.506957e-02 -2.722083e+00 240 206 169
-1.315642e+00 1.443115e-01 -2.879094e+00 173 129 82
-1.514785e+00 6.468369e-02 -2.875360e+00 248 208 173
-1.312269e+00 -2.587829e-02 -2.948704e+00 223 189 154
-1.370308e+00 -3.334030e-03 -2.899485e+00 148 109 76
-1.465471e+00 -3.130728e-03 -2.880922e+00 178 138 102
-1.452557e+00 -2.142053e-02 -2.882842e+00 144 105 74
-1.403268e+00 2.616529e-01 -2.966359e+00 159 106 62
-1.393383e+00 2.546811e-01 -2.969700e+00 167 115 66
1.213600e+00 1.173199e-01 -2.775420e+00 194 155 124
-1.212827e+00 1.812027e-01 -2.890540e+00 223 177 128
-1.128585e+00 1.656786e-01 -2.887180e+00 208 173 131
-1.234200e+00 1.517860e-01 -2.890153e+00 201 156 113
-1.352585e+00 1.632084e-01 -2.876609e+00 171 125 76
-1.512291e+00 1.755444e-01 -2.874671e+00 232 184 144
-1.349152e+00 1.596983e-01 -2.877606e+00 234 187 141
-1.347820e+00 1.545215e-01 -2.873920e+00 155 111 66
-1.528918e+00 1.626977e-01 -2.870753e+00 189 147 112
-1.401506e+00 1.053719e-01 -2.867932e+00 173 129 90
-1.440434e+00 6.483929e-02 -2.872008e+00 228 189 150
-1.122542e+00 1.699288e-01 -2.886540e+00 244 207 165
-1.384014e+00 7.549182e-03 -2.888590e+00 204 164 128
1.261627e+00 4.098724e-02 -2.715632e+00 237 204 173
7.655488e-01 2.254100e-02 -2.955991e+00 7 9 8
-1.575556e+00 1.504129e-02 -2.865283e+00 189 149 113
-1.440680e+00 2.566683e-02 -2.875446e+00 192 153 115
-1.363765e+00 1.009586e-01 -2.874914e+00 178 139 96
-1.420239e+00 7.600972e-02 -2.867908e+00 242 200 160
8.440961e-01 7.108174e-02 -2.906671e+00 251 230 205
-1.440656e+00 4.385615e-02 -2.872533e+00 167 127 91
1.277258e+00 4.334181e-02 -2.696328e+00 202 164 126
1.266448e+00 9.098099e-02 -2.711495e+00 255 223 193
-1.626698e+00 1.298896e-01 -2.894590e+00 16 18 13
-1.301874e+00 -5.894502e-02 -2.956222e+00 6 8 5
1.284244e+00 -3.622918e-04 -2.690994e+00 214 188 164
-1.524118e+00 8.096505e-03 -2.895503e+00 168 125 91
-1.463620e+00 6.257655e-02 -2.871095e+00 239 203 167
-1.620111e+00 6.948388e-02 -2.899777e+00 206 159 113
1.010712e+00 9.174064e-02 -2.857417e+00 254 236 226
-1.103612e+00 2.168566e-01 -2.897958e+00 228 187 136
-1.348442e+00 3.217164e-01 -2.984225e+00 237 189 140
-1.363890e+00 -6.750656e-02 -2.917546e+00 118 85 54
-1.300829e+00 -2.445351e-02 -2.948008e+00 213 178 138
-1.403382e+00 -2.030815e-02 -2.888114e+00 226 190 158
-1.263584e+00 -6.145612e-04 -2.962342e+00 6 7 3
-1.408718e+00 1.503747e-02 -2.882118e+00 168 129 98
1.429089e+00 4.736214e-02 -2.638533e+00 195 151 119
9.382276e-01 9.348063e-02 -2.877248e+00 208 190 178
-1.569424e+00 9.899266e-02 -2.881216e+00 227 185 143
1.013698e+00 1.083105e-01 -2.847694e+00 210 196 193
-1.433944e+00 1.171640e-01 -2.864984e+00 211 168 125
-1.329219e+00 1.238369e-01 -2.878451e+00 197 158 117
-1.302233e+00 1.286861e-01 -2.882988e+00 158 116 76
-1.369031e+00 1.321344e-01 -2.868221e+00 207 164 121
-1.114850e+00 1.512324e-01 -2.890603e+00 234 205 173
7.091520e-01 1.519279e-01 -2.858297e+00 194 189 189
-9.004966e-01 1.591799e-01 -2.883150e+00 191 171 146
-1.573718e+00 1.730295e-01 -2.879275e+00 223 183 147
-5.317771e-01 1.896872e-01 -2.853256e+00 214 202 178
-1.469281e+00 2.587454e-01 -2.958410e+00 167 114 72
-1.261336e+00 2.645419e-01 -2.953641e+00 167 120 68
-1.316635e+00 2.793360e-01 -2.966113e+00 253 204 148
-1.395968e+00 -8.652979e-02 -2.913379e+00 140 106 81
-1.395968e+00 -8.652979e-02 -2.913379e+00 140 106 81
-1.378934e+00 -7.200733e-02 -2.908983e+00 205 174 145
-1.401546e+00 -6.355253e-02 -2.898695e+00 168 133 104
-1.362688e+00 -5.204328e-02 -2.911912e+00 196 162 127
1.297034e+00 -4.371588e-02 -2.707591e+00 204 186 182
1.297034e+00 -4.371588e-02 -2.707591e+00 204 186 182
-1.391324e+00 -4.367928e-02 -2.894105e+00 230 194 160
-1.583250e+00 -1.178126e-02 -2.919701e+00 138 99 66
-1.583250e+00 -1.178126e-02 -2.919701e+00 138 99 66
-1.382113e+00 -8.944503e-03 -2.893515e+00 162 123 89
1.297924e+00 -6.072647e-04 -2.676124e+00 194 163 142
9.184343e-01 5.511403e-02 -2.885156e+00 205 157 109
1.414475e+00 5.463496e-02 -2.638653e+00 250 223 215
-1.429056e+00 6.250565e-02 -2.874588e+00 236 197 156
1.205063e+00 7.702447e-02 -2.777844e+00 255 233 221
1.261157e+00 8.923789e-02 -2.718737e+00 250 216 186
-1.508016e+00 9.735972e-02 -2.871682e+00 254 219 179
9.489635e-01 1.031292e-01 -2.867454e+00 235 218 210
1.282543e+00 1.038228e-01 -2.700390e+00 255 227 192
-1.557271e+00 1.167679e-01 -2.880963e+00 117 81 51
1.208075e+00 1.183840e-01 -2.776482e+00 238 199 168
9.963286e-01 1.213680e-01 -2.842904e+00 237 218 203
9.963286e-01 1.213680e-01 -2.842904e+00 237 218 203
8.176211e-01 1.302591e-01 -2.861464e+00 224 216 214
-1.430496e+00 -8.618878e-02 -2.910555e+00 115 84 63
-1.353714e+00 -5.522383e-02 -2.924054e+00 115 80 48
-1.427243e+00 -2.912659e-02 -2.883384e+00 255 223 189
-1.536744e+00 -2.782173e-02 -2.906939e+00 124 81 47
-1.321427e+00 -1.849721e-02 -2.936514e+00 145 111 76
-1.563376e+00 -6.352712e-03 -2.908488e+00 223 183 148
1.309165e+00 -1.463042e-03 -2.673177e+00 238 222 223
-1.277568e+00 2.236387e-04 -2.954658e+00 193 161 123
9.307393e-01 8.895915e-03 -2.892124e+00 187 172 169
-1.280500e+00 1.114145e-02 -2.944001e+00 130 99 68
-1.263968e+00 1.333594e-02 -2.951783e+00 182 156 123
-1.371072e+00 1.473007e-02 -2.891003e+00 150 111 72
-1.460706e+00 2.143075e-02 -2.876557e+00 153 108 75
-1.503600e+00 2.119786e-02 -2.882658e+00 211 169 132
1.273994e+00 2.616995e-02 -2.698646e+00 179 137 86
-1.408458e+00 3.366215e-02 -2.880672e+00 212 173 134
-1.559171e+00 3.933509e-02 -2.892205e+00 70 29 0
-1.356728e+00 4.721117e-02 -2.886242e+00 235 192 149
1.389712e+00 4.698188e-02 -2.636455e+00 211 178 159
-1.555118e+00 5.047410e-02 -2.886860e+00 239 200 163
-1.601865e+00 5.364202e-02 -2.898687e+00 166 122 83
-1.568066e+00 6.000585e-02 -2.886476e+00 194 152 114
1.324786e+00 7.546190e-02 -2.654381e+00 238 213 193
1.143990e+00 8.008817e-02 -2.798310e+00 236 214 196
9.667207e-01 8.486651e-02 -2.873085e+00 200 178 165
1.230877e+00 9.025421e-02 -2.760798e+00 233 194 163
1.208309e+00 9.091207e-02 -2.776952e+00 214 177 154
1.157352e+00 9.199356e-02 -2.785189e+00 252 222 197
1.048943e+00 9.656472e-02 -2.845434e+00 189 181 179
1.228071e+00 1.010587e-01 -2.766980e+00 253 217 192
1.205606e+00 1.038272e-01 -2.776821e+00 255 231 207
8.765822e-01 1.090192e-01 -2.871856e+00 230 216 205
7.928697e-01 1.188944e-01 -2.872499e+00 229 224 222
1.283613e+00 1.165955e-01 -2.703021e+00 209 166 130
-1.382653e+00 1.267598e-01 -2.865795e+00 240 197 154
8.544074e-01 1.274120e-01 -2.859149e+00 177 160 150
-1.194575e+00 1.489856e-01 -2.890127e+00 216 182 144
-1.285061e+00 1.601243e-01 -2.887183e+00 194 150 105
-1.133676e+00 1.631603e-01 -2.888530e+00 217 182 144
9.127459e-01 1.669682e-01 -2.833905e+00 224 189 151
-8.451670e-01 1.747558e-01 -2.872312e+00 195 174 145
-5.192725e-02 2.139113e-01 -2.830623e+00 223 216 210
-3.442002e-02 2.209883e-01 -2.826350e+00 201 194 186
-4.078688e-02 2.345900e-01 -2.823540e+00 242 227 204
-1.436485e+00 2.911856e-01 -2.969758e+00 140 90 55
-1.354204e+00 2.966436e-01 -2.977573e+00 230 178 128
-1.434275e+00 -9.734290e-02 -2.919165e+00 206 180 155
-1.434275e+00 -9.734290e-02 -2.919165e+00 206 180 155
-1.608576e+00 -5.390822e-02 -2.957446e+00 91 55 28
-1.608576e+00 -5.390822e-02 -2.957446e+00 91 55 28
1.306345e+00 -4.933329e-02 -2.707041e+00 143 117 103
-1.426842e+00 -4.590746e-02 -2.889047e+00 151 116 89
1.316289e+00 -4.143206e-02 -2.691189e+00 147 119 107
-1.342230e+00 -3.962883e-02 -2.927578e+00 205 177 150
1.326447e+00 -3.518975e-02 -2.682914e+00 156 128 109
-1.317905e+00 -3.428305e-02 -2.946474e+00 105 69 35
-1.317905e+00 -3.428305e-02 -2.946474e+00 105 69 35
-1.317905e+00 -3.428305e-02 -2.946474e+00 105 69 35
-1.390912e+00 -2.783556e-02 -2.892940e+00 158 119 88
-1.440022e+00 -2.415686e-02 -2.884594e+00 233 194 163
-1.428794e+00 -1.858588e-02 -2.881778e+00 197 158 125
-1.554064e+00 -1.519594e-02 -2.905771e+00 168 129 90
-1.287988e+00 -8.107139e-03 -2.951929e+00 215 180 141
-1.333353e+00 -1.761293e-03 -2.911793e+00 208 172 136
-1.333353e+00 -1.761293e-03 -2.911793e+00 208 172 136
9.744741e-01 1.306971e-02 -2.873540e+00 254 224 200
1.253229e+00 3.398617e-02 -2.728855e+00 237 204 173
1.316608e+00 3.450324e-02 -2.657123e+00 255 239 238
1.269008e+00 3.584829e-02 -2.705792e+00 246 209 173
9.133535e-01 4.398960e-02 -2.885540e+00 255 222 180
1.239590e+00 4.295449e-02 -2.763117e+00 239 204 170
1.315090e+00 4.294652e-02 -2.658695e+00 218 199 193
1.315090e+00 4.294652e-02 -2.658695e+00 218 199 193
-1.306421e+00 4.641991e-02 -2.905512e+00 168 132 92
-1.392273e+00 5.566211e-02 -2.878352e+00 175 133 93
-1.370884e+00 5.724582e-02 -2.880196e+00 158 116 76
1.254395e+00 5.562393e-02 -2.719004e+00 206 170 134
-1.337939e+00 6.146669e-02 -2.889182e+00 213 171 129
-1.400289e+00 6.149272e-02 -2.873795e+00 235 194 150
-1.525305e+00 6.867020e-02 -2.878064e+00 188 148 112
-1.448487e+00 6.973952e-02 -2.869786e+00 245 210 170
-1.500078e+00 7.040688e-02 -2.873735e+00 235 199 163
8.805321e-01 7.607786e-02 -2.894786e+00 253 224 190
-1.391542e+00 7.741629e-02 -2.873170e+00 238 195 152
-1.594953e+00 7.847195e-02 -2.890288e+00 209 166 124
1.285124e+00 7.448369e-02 -2.684869e+00 183 149 111
1.238540e+00 7.557734e-02 -2.751724e+00 207 167 132
-1.297827e+00 8.183385e-02 -2.894589e+00 235 198 154
-1.485846e+00 8.319378e-02 -2.870074e+00 242 208 170
-1.570688e+00 8.770248e-02 -2.883537e+00 227 185 143
1.029395e+00 9.383884e-02 -2.852061e+00 254 241 230
1.029395e+00 9.383884e-02 -2.852061e+00 254 241 230
1.177183e+00 9.407476e-02 -2.779583e+00 255 232 218
1.177183e+00 9.407476e-02 -2.779583e+00 255 232 218
-1.466859e+00 1.054495e-01 -2.863836e+00 242 203 160
-1.466859e+00 1.054495e-01 -2.863836e+00 242 203 160
9.861448e-01 1.065874e-01 -2.855254e+00 250 230 219
7.024039e-01 1.119983e-01 -2.898245e+00 202 203 208
-1.476912e+00 1.165880e-01 -2.863783e+00 254 216 177
-1.105256e+00 1.207936e-01 -2.900827e+00 184 160 134
1.184390e+00 1.211346e-01 -2.778870e+00 255 227 202
1.184390e+00 1.211346e-01 -2.778870e+00 255 227 202
1.254792e+00 1.301532e-01 -2.760845e+00 251 212 171
1.131355e+00 1.370341e-01 -2.810563e+00 255 231 198
1.061761e+00 1.397820e-01 -2.824672e+00 234 183 133
1.061761e+00 1.397820e-01 -2.824672e+00 234 183 133
7.659757e-01 1.516470e-01 -2.852879e+00 206 200 200
-1.181105e-01 1.643784e-01 -2.979129e+00 199 201 200
8.757203e-01 1.587945e-01 -2.836562e+00 234 207 177
-1.207005e+00 1.611262e-01 -2.888053e+00 195 150 108
-1.374716e+00 1.639479e-01 -2.873582e+00 241 195 146
-1.374716e+00 1.639479e-01 -2.873582e+00 241 195 146
-7.940129e-01 1.731183e-01 -2.870644e+00 224 203 174
-8.333039e-01 1.757249e-01 -2.871564e+00 192 168 140
-7.855708e-01 1.797001e-01 -2.868416e+00 206 185 154
-9.507462e-01 1.842372e-01 -2.877080e+00 214 184 148
1.793861e-01 2.206680e-01 -2.825196e+00 209 204 200
1.434002e-01 2.230521e-01 -2.823652e+00 213 206 196
-1.363511e+00 2.622821e-01 -2.965451e+00 200 149 94
-1.328759e+00 2.645738e-01 -2.965853e+00 179 128 77
-2.988186e-01 2.795475e-01 -2.841315e+00 223 204 172
-1.398080e+00 2.936247e-01 -2.974042e+00 242 192 143
-1.406950e+00 2.979913e-01 -2.972130e+00 166 114 74
-1.409862e+00 3.204767e-01 -2.976970e+00 223 180 138
-1.400540e+00 -1.135823e-01 -2.933547e+00 131 109 86
-1.478720e+00 -9.091928e-02 -2.921874e+00 159 138 120
-1.478720e+00 -9.091928e-02 -2.921874e+00 159 138 120
-1.377961e+00 -8.072479e-02 -2.913031e+00 141 107 79
-1.369084e+00 -7.515700e-02 -2.916969e+00 95 60 27
-1.369084e+00 -7.515700e-02 -2.916969e+00 95 60 27
-1.424423e+00 -7.214118e-02 -2.898911e+00 217 182 150
-1.444628e+00 -7.126444e-02 -2.894661e+00 210 175 152
-1.422708e+00 -6.448434e-02 -2.896877e+00 151 115 83
-1.422708e+00 -6.448434e-02 -2.896877e+00 151 115 83
-1.528957e+00 -4.592226e-02 -2.910631e+00 176 138 107
-1.488301e+00 -4.335334e-02 -2.893770e+00 230 193 161
-1.415959e+00 -3.621118e-02 -2.887090e+00 197 162 130
-1.473542e+00 -2.992222e-02 -2.890716e+00 136 95 65
-1.337447e+00 -2.586734e-02 -2.922103e+00 225 195 167
-1.337447e+00 -2.586734e-02 -2.922103e+00 225 195 167
1.365029e+00 -2.229830e-02 -2.658429e+00 186 161 154
-1.371694e+00 -2.405018e-02 -2.902340e+00 208 172 138
-1.376550e+00 -2.222260e-02 -2.898498e+00 161 123 90
1.375706e+00 -1.802962e-02 -2.651447e+00 187 159 153
1.328642e+00 -1.743001e-02 -2.667198e+00 229 214 214
-1.543208e+00 -1.489929e-02 -2.903195e+00 205 162 127
-1.603639e+00 -8.753802e-03 -2.925931e+00 56 16 0
-1.311854e+00 2.542422e-03 -2.925849e+00 197 161 129
1.276568e+00 6.497956e-03 -2.704045e+00 179 150 118
1.414859e+00 9.479983e-03 -2.643128e+00 236 219 226
1.309160e+00 1.112680e-02 -2.665521e+00 248 230 231
-1.301408e+00 1.360938e-02 -2.928292e+00 155 121 89
1.241967e+00 1.497765e-02 -2.762327e+00 219 192 173
-1.505680e+00 1.513315e-02 -2.885582e+00 216 173 138
-1.357174e+00 1.938338e-02 -2.895991e+00 231 192 149
1.313396e+00 2.070791e-02 -2.663741e+00 251 231 230
-1.266728e+00 2.307020e-02 -2.945162e+00 123 94 63
-1.504421e+00 2.521669e-02 -2.881644e+00 212 168 131
9.359694e-01 3.142957e-02 -2.878978e+00 187 152 129
9.359694e-01 3.142957e-02 -2.878978e+00 187 152 129
-1.420458e+00 3.173851e-02 -2.878400e+00 141 101 65
-1.586328e+00 3.712901e-02 -2.896715e+00 224 182 142
1.231441e+00 4.010369e-02 -2.766812e+00 207 175 151
1.017271e+00 4.218560e-02 -2.888363e+00 255 243 235
-1.394263e+00 4.800751e-02 -2.880242e+00 209 170 129
-1.577352e+00 5.047701e-02 -2.890032e+00 216 176 137
-1.332270e+00 5.673137e-02 -2.892194e+00 142 102 66
1.385220e+00 5.428408e-02 -2.636567e+00 248 222 209
1.280305e+00 5.764262e-02 -2.686515e+00 231 196 158
-1.593994e+00 6.166524e-02 -2.890871e+00 169 125 86
-1.593994e+00 6.166524e-02 -2.890871e+00 169 125 86
8.828778e-01 6.253678e-02 -2.892026e+00 255 240 194
-1.422358e+00 6.263433e-02 -2.872764e+00 244 205 162
-1.486710e+00 6.367403e-02 -2.876514e+00 149 110 77
1.271429e+00 6.207321e-02 -2.704604e+00 204 166 130
-1.378342e+00 6.718127e-02 -2.876437e+00 162 120 80
-1.396840e+00 6.890443e-02 -2.873542e+00 194 152 110
-1.484873e+00 6.995892e-02 -2.872638e+00 243 208 170
1.229530e+00 6.838064e-02 -2.764900e+00 212 181 161
1.229530e+00 6.838064e-02 -2.764900e+00 212 181 161
-1.420962e+00 7.636554e-02 -2.869630e+00 241 199 159
-1.415606e+00 7.817777e-02 -2.871269e+00 246 207 164
1.036995e+00 7.807319e-02 -2.864449e+00 225 211 211
8.921520e-01 8.217203e-02 -2.891825e+00 211 189 167
-1.472138e+00 8.266867e-02 -2.867497e+00 244 206 167
1.421830e+00 7.841579e-02 -2.639155e+00 254 226 212
1.281852e+00 8.221896e-02 -2.694159e+00 225 187 148
-1.343630e+00 8.887265e-02 -2.881599e+00 161 122 81
1.155487e+00 8.773863e-02 -2.789617e+00 249 219 193
9.905024e-01 9.140560e-02 -2.864711e+00 247 228 219
9.905024e-01 9.140560e-02 -2.864711e+00 247 228 219
-1.290555e+00 9.594080e-02 -2.892479e+00 219 182 140
-1.361558e+00 9.618350e-02 -2.876998e+00 143 101 59
-1.326618e+00 9.877822e-02 -2.885503e+00 222 184 145
9.873998e-01 9.941618e-02 -2.862285e+00 200 180 169
9.873998e-01 9.941618e-02 -2.862285e+00 200 180 169
1.312235e+00 9.934099e-02 -2.667298e+00 237 213 189
1.248445e+00 1.023444e-01 -2.754249e+00 204 165 126
1.174072e+00 1.040984e-01 -2.781074e+00 228 200 183
-1.390432e+00 1.117902e-01 -2.866593e+00 217 174 131
1.075380e+00 1.117820e-01 -2.820875e+00 255 234 216
7.660386e-01 1.143265e-01 -2.881542e+00 219 214 210
-1.429915e+00 1.138363e-01 -2.863747e+00 179 137 94
-1.393065e+00 1.180542e-01 -2.864558e+00 183 140 95
-1.547703e+00 1.191291e-01 -2.877119e+00 228 187 155
-1.266705e+00 1.210613e-01 -2.892632e+00 242 205 161
-1.252023e+00 1.217854e-01 -2.893474e+00 243 209 171
7.527300e-01 1.222501e-01 -2.877325e+00 184 182 183
-1.240890e+00 1.240612e-01 -2.893417e+00 242 208 173
8.180968e-01 1.261555e-01 -2.864223e+00 231 222 218
-1.333528e+00 1.305695e-01 -2.875113e+00 178 136 96
1.097666e+00 1.291259e-01 -2.815265e+00 240 213 186
-1.542389e+00 1.352197e-01 -2.873646e+00 239 201 165
-1.318410e+00 1.387424e-01 -2.878235e+00 229 186 143
-1.573234e+00 1.409014e-01 -2.878136e+00 228 188 153
-1.538816e+00 1.413124e-01 -2.872633e+00 187 148 119
9.058658e-01 1.408968e-01 -2.836189e+00 233 220 214
-1.535417e+00 1.493912e-01 -2.870705e+00 232 191 159
8.948949e-01 1.534625e-01 -2.834177e+00 255 232 200
-1.225901e+00 1.587365e-01 -2.890156e+00 188 143 97
-1.225901e+00 1.587365e-01 -2.890156e+00 188 143 97
8.914620e-01 1.600285e-01 -2.833804e+00 216 182 146
8.914620e-01 1.600285e-01 -2.833804e+00 216 182 146
-1.089270e+00 1.652303e-01 -2.886436e+00 230 195 155
-1.275823e+00 1.742000e-01 -2.888687e+00 233 191 143
-5.263935e-01 2.009752e-01 -2.848050e+00 212 196 171
1.209419e+00 2.162631e-01 -2.853934e+00 207 166 124
-2.043405e-01 2.129201e-01 -2.831833e+00 229 220 208
-1.997467e-01 2.194777e-01 -2.829447e+00 202 193 176
-1.439556e+00 2.588394e-01 -2.955407e+00 232 181 136
-1.446710e+00 2.665040e-01 -2.962404e+00 147 94 53
-1.334717e+00 2.924803e-01 -2.975914e+00 251 201 148
-1.398438e+00 3.212824e-01 -2.971866e+00 129 84 46
-1.390204e+00 -1.135093e-01 -2.933065e+00 192 168 144
-1.408617e+00 -9.239268e-02 -2.916798e+00 129 98 78
-1.416478e+00 -7.682254e-02 -2.902487e+00 174 142 118
-1.337830e+00 -6.793054e-02 -2.933776e+00 225 189 154
-1.337830e+00 -6.793054e-02 -2.933776e+00 225 189 154
-1.330865e+00 -6.225325e-02 -2.937710e+00 152 115 78
-1.378053e+00 -4.158360e-02 -2.899495e+00 168 132 100
1.334626e+00 -3.695072e-02 -2.679206e+00 199 171 155
-1.430505e+00 -3.853040e-02 -2.885345e+00 193 158 130
-1.469356e+00 -3.748908e-02 -2.891108e+00 208 168 135
1.334867e+00 -3.223853e-02 -2.674446e+00 178 150 139
1.316368e+00 -3.236674e-02 -2.687170e+00 214 199 196
-1.309063e+00 -3.307151e-02 -2.949378e+00 91 55 21
1.295347e+00 -2.893362e-02 -2.698112e+00 215 200 193
-1.411899e+00 -2.983587e-02 -2.883550e+00 236 200 166
-1.594689e+00 -2.738825e-02 -2.929322e+00 176 139 103
-1.390231e+00 -2.112204e-02 -2.890898e+00 217 178 149
-1.452557e+00 -2.142053e-02 -2.882842e+00 144 105 74
1.361169e+00 -1.572423e-02 -2.655647e+00 227 206 205
1.309968e+00 -1.064373e-02 -2.677523e+00 198 182 182
-1.626344e+00 -7.553974e-03 -2.928512e+00 206 165 133
-1.450761e+00 -3.532448e-03 -2.880944e+00 230 189 157
1.287197e+00 -8.251980e-04 -2.686891e+00 232 206 183
-1.462297e+00 2.902394e-03 -2.879666e+00 214 171 136
-1.291861e+00 5.710489e-03 -2.939332e+00 118 87 56
-1.300882e+00 7.318684e-03 -2.930672e+00 191 158 127
-1.389876e+00 9.219031e-03 -2.887097e+00 230 189 159
-1.491736e+00 1.593698e-02 -2.881091e+00 166 124 86
1.345096e+00 1.682941e-02 -2.649869e+00 206 186 187
1.245112e+00 1.733361e-02 -2.756575e+00 182 157 137
-1.302261e+00 1.947887e-02 -2.920973e+00 206 173 141
-1.322319e+00 1.910390e-02 -2.910688e+00 214 179 141
-1.322319e+00 1.910390e-02 -2.910688e+00 214 179 141
1.388260e+00 1.819979e-02 -2.640983e+00 218 198 199
-1.361546e+00 2.412423e-02 -2.895915e+00 129 88 47
-1.360528e+00 2.793837e-02 -2.887313e+00 214 176 135
1.438316e+00 2.948004e-02 -2.644038e+00 208 195 202
-1.489373e+00 3.323180e-02 -2.879537e+00 164 120 85
9.086759e-01 3.685447e-02 -2.887890e+00 208 179 154
9.086759e-01 3.685447e-02 -2.887890e+00 208 179 154
-1.362034e+00 3.711032e-02 -2.889109e+00 152 113 72
-1.294089e+00 3.862318e-02 -2.912179e+00 128 92 56
-1.369171e+00 4.025596e-02 -2.880738e+00 158 117 77
-1.491331e+00 4.010741e-02 -2.880233e+00 255 216 180
-1.295131e+00 4.323958e-02 -2.909440e+00 239 204 165
-1.210196e+00 4.559526e-02 -2.959022e+00 107 87 62
-1.385007e+00 4.940542e-02 -2.878525e+00 236 194 153
-1.540495e+00 5.254918e-02 -2.884564e+00 220 177 143
1.418426e+00 4.980555e-02 -2.639477e+00 249 221 210
1.247691e+00 5.159387e-02 -2.733225e+00 234 198 162
1.285801e+00 5.643204e-02 -2.676900e+00 250 218 187
1.363606e+00 5.611799e-02 -2.638772e+00 229 205 203
1.044691e+00 6.022897e-02 -2.881218e+00 208 205 214
1.277003e+00 6.003843e-02 -2.694522e+00 192 157 119
-1.302542e+00 6.582421e-02 -2.896862e+00 216 179 137
1.159105e+00 6.501847e-02 -2.797474e+00 223 206 203
-1.388720e+00 7.132009e-02 -2.875569e+00 169 127 86
1.257758e+00 7.059586e-02 -2.720688e+00 188 151 117
-1.402858e+00 7.408610e-02 -2.873552e+00 234 192 150
1.235344e+00 7.203501e-02 -2.756678e+00 250 213 184
1.089628e+00 7.524409e-02 -2.852012e+00 155 142 142
-1.338452e+00 7.611951e-02 -2.886219e+00 196 157 116
-1.503868e+00 7.570005e-02 -2.872555e+00 192 154 118
1.230834e+00 7.441309e-02 -2.761894e+00 255 242 215
1.047740e+00 7.675333e-02 -2.863543e+00 222 210 210
-1.316409e+00 7.780676e-02 -2.889876e+00 244 207 165
9.849363e-01 8.041527e-02 -2.872388e+00 203 185 181
1.039845e+00 8.207497e-02 -2.859124e+00 206 191 188
1.157412e+00 8.165082e-02 -2.788048e+00 210 187 174
1.157412e+00 8.165082e-02 -2.788048e+00 210 187 174
-1.337596e+00 8.579897e-02 -2.881636e+00 198 159 118
1.243049e+00 8.297345e-02 -2.748293e+00 255 226 187
1.199539e+00 8.535201e-02 -2.779480e+00 225 191 171
-1.290873e+00 8.898410e-02 -2.894969e+00 178 143 103
-1.290873e+00 8.898410e-02 -2.894969e+00 178 143 103
9.215331e-01 8.880165e-02 -2.883399e+00 208 192 179
-1.494537e+00 8.914708e-02 -2.871282e+00 161 123 84
-1.268718e+00 9.018933e-02 -2.896745e+00 199 167 128
1.228333e+00 9.224523e-02 -2.765580e+00 220 183 156
-1.624895e+00 1.031146e-01 -2.900557e+00 243 195 146
1.239537e+00 1.017691e-01 -2.757236e+00 206 164 124
9.386152e-01 1.044343e-01 -2.865570e+00 243 225 221
-1.273792e+00 1.063983e-01 -2.892478e+00 211 177 135
-1.519563e+00 1.068534e-01 -2.871879e+00 160 120 84
-1.429106e+00 1.083168e-01 -2.864670e+00 239 200 156
1.317669e+00 1.027485e-01 -2.665823e+00 255 242 219
1.317669e+00 1.027485e-01 -2.665823e+00 255 242 219
-1.364988e+00 1.100214e-01 -2.871452e+00 202 160 118
-1.402219e+00 1.104675e-01 -2.865079e+00 220 177 134
-1.524954e+00 1.116470e-01 -2.872488e+00 252 215 178
7.242838e-01 1.135201e-01 -2.891996e+00 208 206 207
-1.407678e+00 1.141427e-01 -2.863830e+00 177 136 92
9.810997e-01 1.167338e-01 -2.854638e+00 197 177 166
9.173657e-01 1.202776e-01 -2.861781e+00 180 171 172
1.197707e+00 1.183304e-01 -2.779209e+00 246 203 173
-1.259525e+00 1.231982e-01 -2.893104e+00 198 163 121
-1.259525e+00 1.231982e-01 -2.893104e+00 198 163 121
-1.330002e+00 1.227708e-01 -2.876963e+00 203 164 123
-1.365542e+00 1.222832e-01 -2.870970e+00 223 180 137
9.310995e-01 1.220828e-01 -2.857494e+00 177 165 167
8.368523e-01 1.257187e-01 -2.862967e+00 191 176 166
-1.087996e+00 1.265407e-01 -2.896562e+00 230 203 173
-1.286486e+00 1.315475e-01 -2.887206e+00 242 199 154
1.119968e+00 1.291448e-01 -2.808398e+00 255 231 200
-1.310383e+00 1.331955e-01 -2.880254e+00 153 111 71
9.922070e-01 1.323662e-01 -2.836597e+00 210 191 184
-1.533573e+00 1.360118e-01 -2.871624e+00 249 213 177
-1.411702e+00 1.371730e-01 -2.863344e+00 135 92 47
-1.358056e+00 1.400177e-01 -2.868345e+00 223 180 137
-8.761064e-01 1.458172e-01 -2.887450e+00 208 191 163
-1.192857e+00 1.459773e-01 -2.891846e+00 210 178 140
-1.233623e+00 1.460916e-01 -2.890265e+00 239 196 153
-1.063480e+00 1.540557e-01 -2.887746e+00 204 178 145
-1.324506e+00 1.542428e-01 -2.878750e+00 164 119 76
-1.272152e+00 1.671268e-01 -2.888987e+00 199 156 111
-1.351133e+00 1.682639e-01 -2.879237e+00 250 203 153
-7.610069e-01 1.698872e-01 -2.871350e+00 197 176 150
-1.364022e+00 1.712309e-01 -2.878984e+00 194 147 95
-1.139826e+00 1.724781e-01 -2.887120e+00 244 205 160
-7.130039e-01 1.815958e-01 -2.864982e+00 207 190 164
-9.844570e-01 1.929018e-01 -2.879431e+00 205 172 129
1.140813e+00 2.074118e-01 -2.850380e+00 255 237 205
-2.944815e-01 2.077693e-01 -2.837295e+00 225 216 198
-2.845723e-01 2.084944e-01 -2.835714e+00 231 222 203
6.537863e-02 2.165768e-01 -2.827911e+00 233 227 221
-1.635135e-01 2.176868e-01 -2.829332e+00 202 194 181
1.792093e-01 2.295223e-01 -2.822964e+00 253 243 231
1.136107e+00 2.396668e-01 -2.872410e+00 254 216 174
1.805265e-01 2.344379e-01 -2.820759e+00 219 207 191
-1.437049e+00 2.496308e-01 -2.956096e+00 239 187 140
-1.448122e+00 2.503638e-01 -2.952925e+00 236 188 142
1.226956e+00 2.692889e-01 -2.868022e+00 246 195 151
-1.426316e+00 2.766390e-01 -2.964830e+00 141 89 49
1.232947e+00 2.699122e-01 -2.867274e+00 208 161 115
-8.747342e-01 2.774711e-01 -2.896146e+00 254 221 176
1.237879e+00 2.784510e-01 -2.867249e+00 214 167 121
-1.358230e+00 2.980700e-01 -2.978709e+00 232 182 133
-1.402700e+00 3.118909e-01 -2.975255e+00 150 101 60
-1.384239e+00 3.233234e-01 -2.982780e+00 136 93 55
-1.424266e+00 -9.896712e-02 -2.920912e+00 208 182 160
-1.608576e+00 -8.753928e-02 -2.983388e+00 201 177 153
-1.364227e+00 -7.973854e-02 -2.920106e+00 204 167 133
-1.468123e+00 -6.513236e-02 -2.891316e+00 192 149 115
-1.353129e+00 -6.367835e-02 -2.925711e+00 211 172 135
1.312277e+00 -5.183021e-02 -2.707823e+00 181 155 144
-1.306524e+00 -4.860088e-02 -2.950914e+00 163 147 126
-1.425913e+00 -4.061165e-02 -2.887871e+00 217 181 155
-1.321909e+00 -3.694887e-02 -2.944583e+00 91 55 21
-1.440918e+00 -1.846743e-02 -2.883871e+00 197 158 127
-1.457218e+00 -1.783563e-02 -2.883423e+00 221 182 151
-1.332379e+00 -1.308141e-02 -2.921060e+00 135 101 70
-1.609646e+00 -1.217954e-02 -2.926866e+00 197 158 125
-1.294899e+00 -9.332893e-03 -2.950299e+00 135 100 68
-1.412218e+00 -7.608065e-03 -2.883541e+00 189 153 119
-1.338527e+00 -4.340048e-04 -2.910102e+00 162 125 88
-1.299587e+00 3.720034e-03 -2.935116e+00 117 86 55
-1.458853e+00 8.115959e-03 -2.880539e+00 213 170 136
-1.330623e+00 8.698520e-03 -2.910795e+00 168 133 96
-1.412517e+00 1.181969e-02 -2.882738e+00 150 113 81
-1.585976e+00 1.369637e-02 -2.906633e+00 251 211 176
-1.379027e+00 1.853317e-02 -2.887384e+00 242 200 162
-1.286353e+00 1.960738e-02 -2.932738e+00 223 190 159
-1.374230e+00 2.472690e-02 -2.888071e+00 205 164 120
-1.266582e+00 2.782144e-02 -2.937485e+00 197 170 140
-1.282985e+00 3.140169e-02 -2.925822e+00 124 90 62
-1.506145e+00 3.105202e-02 -2.880524e+00 146 102 67
-1.347069e+00 3.259186e-02 -2.893487e+00 130 91 52
-1.456431e+00 3.358195e-02 -2.874383e+00 226 184 146
1.257170e+00 3.677608e-02 -2.724493e+00 194 163 134
-1.463620e+00 4.110710e-02 -2.873598e+00 209 167 129
-1.375274e+00 4.156292e-02 -2.883003e+00 206 164 126
1.278475e+00 4.018698e-02 -2.692087e+00 162 126 86
8.725809e-01 4.576736e-02 -2.899565e+00 223 186 150
-1.547656e+00 4.724633e-02 -2.886269e+00 221 181 146
-1.368285e+00 4.748106e-02 -2.883988e+00 143 101 59
-1.510488e+00 4.762085e-02 -2.878926e+00 225 180 144
-1.372736e+00 4.985381e-02 -2.882778e+00 221 179 138
1.202281e+00 5.004819e-02 -2.794504e+00 255 239 239
-1.329567e+00 5.259605e-02 -2.894864e+00 230 191 150
-1.320271e+00 5.360686e-02 -2.897778e+00 198 162 123
-1.359986e+00 5.425303e-02 -2.882743e+00 217 178 136
1.023964e+00 5.635532e-02 -2.883005e+00 213 201 201
1.172501e+00 5.704491e-02 -2.803114e+00 232 216 216
1.172501e+00 5.704491e-02 -2.803114e+00 232 216 216
-1.336913e+00 5.941046e-02 -2.891312e+00 215 176 135
-1.632028e+00 6.306974e-02 -2.906695e+00 124 76 34
-1.440434e+00 6.483929e-02 -2.872008e+00 228 189 150
1.273384e+00 6.660236e-02 -2.701177e+00 255 217 181
-1.345938e+00 7.081233e-02 -2.883585e+00 161 119 79
-1.407296e+00 7.059076e-02 -2.874058e+00 183 142 99
8.343953e-01 7.223098e-02 -2.912873e+00 199 182 167
-1.417160e+00 7.231704e-02 -2.873658e+00 184 143 100
-1.468304e+00 7.234673e-02 -2.869138e+00 197 159 122
-1.362304e+00 7.771184e-02 -2.877103e+00 156 117 76
1.253537e+00 7.458212e-02 -2.725773e+00 190 153 116
-1.349410e+00 8.001210e-02 -2.882287e+00 160 118 78
-1.213370e+00 8.082672e-02 -2.913622e+00 170 148 124
-1.306784e+00 8.280759e-02 -2.890972e+00 182 145 103
-1.381587e+00 8.384159e-02 -2.873684e+00 172 131 89
-1.381587e+00 8.384159e-02 -2.873684e+00 172 131 89
-1.393188e+00 8.617877e-02 -2.871315e+00 184 143 99
-1.478977e+00 8.688091e-02 -2.869118e+00 139 101 62
-1.301286e+00 8.785257e-02 -2.896101e+00 191 154 112
9.870705e-01 8.700887e-02 -2.867919e+00 209 192 184
-1.464083e+00 9.053744e-02 -2.865966e+00 201 163 124
-1.259358e+00 9.185992e-02 -2.900509e+00 206 172 135
-1.342634e+00 9.171348e-02 -2.881202e+00 142 103 62
-1.232541e+00 9.323508e-02 -2.903425e+00 192 162 136
9.811768e-01 9.367053e-02 -2.865053e+00 245 225 214
-1.404052e+00 9.499705e-02 -2.866530e+00 204 162 120
9.695715e-01 9.604343e-02 -2.866816e+00 245 220 200
-1.283776e+00 9.716005e-02 -2.895781e+00 194 159 119
-1.393926e+00 9.948203e-02 -2.868050e+00 185 142 100
9.909924e-01 1.034267e-01 -2.857061e+00 255 238 228
-1.424337e+00 1.109423e-01 -2.864328e+00 182 139 96
-1.439570e+00 1.133937e-01 -2.862481e+00 228 185 142
-1.365232e+00 1.146339e-01 -2.869783e+00 141 99 57
1.152097e+00 1.126007e-01 -2.793524e+00 255 223 193
-1.423726e+00 1.158430e-01 -2.863382e+00 227 184 141
1.207659e+00 1.128155e-01 -2.776415e+00 186 146 118
-1.453244e+00 1.159409e-01 -2.863038e+00 156 113 68
9.639939e-01 1.225727e-01 -2.851219e+00 244 227 219
-1.323114e+00 1.253021e-01 -2.880906e+00 146 107 65
9.884592e-01 1.249416e-01 -2.845129e+00 218 198 187
-1.284669e+00 1.266391e-01 -2.888453e+00 172 131 87
-1.366176e+00 1.281090e-01 -2.870078e+00 157 114 72
-1.292954e+00 1.301181e-01 -2.883872e+00 209 164 123
-1.148768e+00 1.307572e-01 -2.894840e+00 231 205 179
9.883888e-01 1.324155e-01 -2.837956e+00 204 187 179
-1.290286e+00 1.348632e-01 -2.885201e+00 175 131 86
-1.364791e+00 1.361774e-01 -2.867355e+00 187 144 101
8.573369e-01 1.352747e-01 -2.849809e+00 229 219 213
-1.380633e+00 1.384821e-01 -2.866134e+00 239 194 152
-1.268856e+00 1.424400e-01 -2.888933e+00 197 155 110
-1.278251e+00 1.446488e-01 -2.887535e+00 240 197 154
1.021789e+00 1.436531e-01 -2.829418e+00 230 209 188
-1.284361e+00 1.470287e-01 -2.886242e+00 204 161 118
9.494975e-01 1.453127e-01 -2.830255e+00 208 190 176
-1.208664e+00 1.488459e-01 -2.891891e+00 243 202 159
-1.361385e+00 1.498974e-01 -2.871020e+00 231 188 145
-1.213016e+00 1.514600e-01 -2.892391e+00 160 117 70
-1.284611e+00 1.517728e-01 -2.886568e+00 235 192 149
1.000668e+00 1.562863e-01 -2.825515e+00 222 200 177
1.000668e+00 1.562863e-01 -2.825515e+00 222 200 177
-1.179485e+00 1.614110e-01 -2.889038e+00 209 175 135
5.765921e-01 1.600600e-01 -2.855473e+00 222 218 217
-1.196766e+00 1.641786e-01 -2.890897e+00 199 160 117
-1.248093e+00 1.648617e-01 -2.891571e+00 254 207 161
-1.249902e+00 1.746257e-01 -2.890562e+00 204 157 111
-1.203168e+00 1.812319e-01 -2.891126e+00 170 126 79
-1.191004e+00 1.858966e-01 -2.891874e+00 199 151 105
-1.183544e+00 1.870626e-01 -2.891293e+00 190 142 94
-1.186236e+00 1.934626e-01 -2.893239e+00 254 206 158
3.097134e-02 2.120290e-01 -2.829287e+00 194 189 183
3.687732e-02 2.133790e-01 -2.829687e+00 202 198 189
-1.783194e-01 2.142771e-01 -2.831539e+00 225 216 201
3.688814e-02 2.176550e-01 -2.827731e+00 243 236 228
3.688814e-02 2.176550e-01 -2.827731e+00 243 236 228
5.109313e-02 2.207059e-01 -2.825944e+00 206 199 189
-6.535381e-02 2.235242e-01 -2.824738e+00 233 225 212
-1.428377e+00 2.404907e-01 -2.957471e+00 162 111 64
-1.393383e+00 2.546811e-01 -2.969700e+00 167 115 66
-1.401887e+00 2.559237e-01 -2.966791e+00 208 157 111
-8.438310e-01 2.523844e-01 -2.880166e+00 226 197 152
-1.263263e+00 2.993910e-01 -2.968850e+00 159 109 58
-1.373126e+00 3.517502e-01 -2.993628e+00 208 165 122
-1.662969e-01 -6.221651e-01 -2.644870e+00 144 146 142
-1.332798e+00 -7.615732e-02 -2.933974e+00 231 198 167
-1.446923e+00 -7.257721e-02 -2.895567e+00 222 188 163
-1.393740e+00 -6.865311e-02 -2.902872e+00 227 192 162
-1.492264e+00 -5.142901e-02 -2.899927e+00 175 137 106
-1.492264e+00 -5.142901e-02 -2.899927e+00 175 137 106
1.441979e+00 -3.622812e-02 -2.672668e+00 95 60 38
1.366990e+00 -2.787531e-02 -2.660840e+00 208 180 168
1.324834e+00 -2.247772e-02 -2.673779e+00 207 193 197
-1.347260e+00 2.742451e-03 -2.902865e+00 163 125 88
1.392148e+00 1.158917e-02 -2.640387e+00 216 197 201
1.305660e+00 1.577339e-02 -2.668926e+00 150 126 114
-1.246456e+00 2.006829e-02 -2.959323e+00 156 130 100
-1.229109e+00 2.439995e-02 -2.967458e+00 181 155 127
1.227953e+00 2.611042e-02 -2.782004e+00 216 184 160
-1.250073e+00 2.848828e-02 -2.951251e+00 125 101 75
9.284410e-01 2.940116e-02 -2.885156e+00 186 156 128
9.021732e-01 4.192869e-02 -2.890481e+00 240 211 188
-1.354459e+00 4.269665e-02 -2.889839e+00 131 89 47
-1.296085e+00 4.731058e-02 -2.906216e+00 172 134 95
9.129969e-01 4.900215e-02 -2.885039e+00 248 205 162
1.197723e+00 4.919538e-02 -2.796211e+00 190 174 175
-1.349319e+00 5.150290e-02 -2.888733e+00 235 193 151
1.169623e+00 5.107908e-02 -2.810518e+00 173 162 160
1.236281e+00 5.513846e-02 -2.766679e+00 227 191 159
-1.432633e+00 6.199744e-02 -2.871771e+00 213 174 132
1.206049e+00 7.062773e-02 -2.780619e+00 229 207 196
1.168211e+00 7.222013e-02 -2.789433e+00 250 232 229
1.419805e+00 7.004696e-02 -2.638018e+00 234 195 166
9.776751e-01 8.700947e-02 -2.869904e+00 244 225 218
1.204056e+00 9.153390e-02 -2.776731e+00 208 170 147
1.217351e+00 9.195303e-02 -2.773335e+00 252 218 196
9.749240e-01 9.736060e-02 -2.865227e+00 213 191 178
1.214424e+00 9.597802e-02 -2.774327e+00 254 225 201
1.192002e+00 9.699004e-02 -2.779031e+00 214 182 162
1.033042e+00 1.037221e-01 -2.842316e+00 209 195 194
-1.244022e+00 1.078870e-01 -2.898323e+00 212 181 150
-1.197349e+00 1.087933e-01 -2.901082e+00 205 181 154
-1.471861e+00 1.107999e-01 -2.863728e+00 218 179 136
8.198592e-01 1.123593e-01 -2.873441e+00 211 199 193
9.602439e-01 1.124611e-01 -2.859605e+00 183 164 157
8.791930e-01 1.126308e-01 -2.868108e+00 196 182 173
-1.325387e+00 1.161749e-01 -2.882064e+00 157 118 75
8.142721e-01 1.158827e-01 -2.873746e+00 170 161 156
-1.616675e+00 1.176584e-01 -2.897026e+00 140 91 48
-1.293978e+00 1.171985e-01 -2.888699e+00 200 161 115
-1.300749e+00 1.178957e-01 -2.886686e+00 156 114 72
-1.342534e+00 1.216653e-01 -2.874204e+00 214 175 134
9.770712e-01 1.223881e-01 -2.848835e+00 233 215 205
-1.549979e+00 1.251896e-01 -2.876208e+00 134 95 62
-1.340562e+00 1.251358e-01 -2.873396e+00 170 131 90
8.563582e-01 1.319543e-01 -2.850479e+00 192 183 178
9.476516e-01 1.377306e-01 -2.836440e+00 182 167 168
9.699982e-01 1.400046e-01 -2.830417e+00 237 222 217
8.591616e-01 1.430575e-01 -2.842057e+00 204 191 181
-1.251339e+00 1.458480e-01 -2.890525e+00 240 199 153
8.842546e-01 1.449481e-01 -2.837474e+00 202 188 177
8.497556e-01 1.450819e-01 -2.844941e+00 185 172 163
-1.198360e+00 1.519790e-01 -2.891098e+00 194 160 122
9.971277e-01 1.576022e-01 -2.825966e+00 221 199 176
-1.550076e+00 1.633995e-01 -2.872706e+00 238 197 165
1.393970e+00 1.580545e-01 -2.673218e+00 186 165 154
-6.127559e-01 1.928637e-01 -2.855500e+00 231 213 183
5.319291e-02 2.139148e-01 -2.828970e+00 202 195 188
-2.137582e-02 2.158803e-01 -2.829718e+00 217 214 207
-9.575990e-01 2.356946e-01 -2.888825e+00 201 168 123
-1.322961e+00 2.706984e-01 -2.967710e+00 215 165 110
-1.257809e+00 3.035238e-01 -2.972754e+00 181 131 80
-1.396688e+00 3.144753e-01 -2.979249e+00 199 151 103
-1.368321e+00 3.200806e-01 -2.981579e+00 229 179 131
-1.391145e+00 3.258361e-01 -2.984309e+00 187 145 118
-1.515268e+00 -1.429574e-01 -3.013324e+00 121 104 94
-1.385572e+00 -6.761259e-02 -2.905113e+00 215 180 152
-1.357711e+00 -5.256656e-02 -2.917914e+00 141 107 72
1.314980e+00 -4.740586e-02 -2.703230e+00 153 129 117
-1.479503e+00 -4.482782e-02 -2.896928e+00 142 98 65
-1.442724e+00 -4.382006e-02 -2.887476e+00 211 176 148
-1.369702e+00 -8.099806e-03 -2.899363e+00 197 158 125
9.408243e-01 -7.752970e-03 -2.910348e+00 176 175 181
9.755138e-01 -3.675799e-03 -2.883121e+00 161 143 137
-1.326101e+00 1.538092e-02 -2.910938e+00 212 178 141
9.300128e-01 1.771732e-02 -2.885473e+00 229 203 180
-1.370114e+00 2.159914e-02 -2.891376e+00 210 168 128
1.271313e+00 2.388974e-02 -2.703336e+00 220 183 142
-1.249285e+00 2.582623e-02 -2.956407e+00 172 151 120
1.228373e+00 3.208426e-02 -2.778838e+00 204 172 147
-1.322453e+00 5.016612e-02 -2.897301e+00 140 102 63
-1.313475e+00 6.439982e-02 -2.895127e+00 212 174 135
-1.634658e+00 6.668663e-02 -2.905606e+00 196 150 111
8.699216e-01 1.103988e-01 -2.870949e+00 202 185 175
8.864787e-01 1.112707e-01 -2.870315e+00 225 210 205
1.178985e+00 1.097221e-01 -2.779225e+00 255 227 209
-1.561029e+00 1.274134e-01 -2.878594e+00 214 175 142
-1.334302e+00 1.321323e-01 -2.873171e+00 174 132 91
9.949793e-01 1.498863e-01 -2.827118e+00 202 182 164
5.712817e-02 2.162736e-01 -2.827602e+00 232 226 219
-1.531533e-01 2.417246e-01 -2.824862e+00 219 203 178
-1.398076e+00 2.886630e-01 -2.972480e+00 235 185 136
-2.770729e-02 1.057407e-02 -1.449991e-02 0 255 0
-2.727846e-02 1.038692e-02 -6.449772e-02 255 255 0
-1.004637e-01 -9.950249e-01 -1.386385e-01 255 0 0
-9.936148e-02 -9.833213e-01 -1.872370e-01 255 255 0
