ply
format ascii 1.0
element face 0
property list uchar int vertex_indices
element vertex 908
property float x
property float y
property float z
property uchar diffuse_red
property uchar diffuse_green
property uchar diffuse_blue
end_header
1.293351e+00 1.645443e-01 -2.710290e+00 253 214 178
-5.045430e-02 2.311249e-01 -2.819533e+00 251 230 199
-1.441583e+00 2.492128e-01 -2.987735e+00 161 107 73
-1.170510e+00 2.479280e-01 -2.955393e+00 254 211 166
1.137013e+00 1.625889e-01 -2.809152e+00 240 206 168
1.244042e+00 1.712251e-01 -2.789063e+00 255 222 179
-3.872280e-01 2.614843e-01 -2.842940e+00 231 216 187
-1.046532e+00 2.627740e-01 -2.937824e+00 255 241 209
-1.178875e+00 2.609717e-01 -2.963731e+00 255 214 167
-1.087000e+00 2.637069e-01 -2.945985e+00 255 233 192
1.162695e+00 1.718139e-01 -2.813450e+00 255 230 188
-1.236858e+00 2.594379e-01 -2.976365e+00 214 171 126
-3.858592e-01 2.733709e-01 -2.845935e+00 234 217 189
1.285734e+00 1.899171e-01 -2.775766e+00 200 159 119
-1.098823e+00 2.723274e-01 -2.952826e+00 228 189 146
-1.357435e+00 2.660842e-01 -3.000530e+00 127 81 45
1.268497e+00 1.894563e-01 -2.788759e+00 255 216 174
-1.403004e+00 2.830325e-01 -2.998151e+00 191 144 114
3.402330e-01 2.453520e-01 -2.822243e+00 255 244 208
-1.425545e+00 2.913900e-01 -2.998715e+00 172 130 105
1.290186e+00 2.055617e-01 -2.785791e+00 255 222 183
-9.646341e-01 2.962054e-01 -2.944223e+00 234 213 180
-1.216990e+00 2.961220e-01 -2.989198e+00 255 231 187
-1.211004e+00 3.021170e-01 -2.997015e+00 222 180 138
-1.121282e+00 3.059489e-01 -2.984499e+00 255 226 187
-1.368518e+00 3.158714e-01 -3.011248e+00 147 107 81
-9.396292e-01 3.165980e-01 -2.962836e+00 218 193 163
-7.689593e-01 3.188866e-01 -2.933483e+00 221 201 168
-1.317424e+00 3.194102e-01 -3.014413e+00 233 190 148
1.134354e-01 3.010476e-01 -2.848942e+00 255 236 196
2.061044e-01 2.958088e-01 -2.850200e+00 255 238 201
2.061689e-01 2.959009e-01 -2.850104e+00 255 238 201
1.110707e+00 2.391066e-01 -2.865780e+00 246 204 153
2.297989e-01 3.071619e-01 -2.866311e+00 215 193 156
1.402988e-01 3.241007e-01 -2.873460e+00 228 208 171
-1.409208e+00 3.724872e-01 -3.025450e+00 87 38 6
-1.444574e+00 3.759294e-01 -3.022929e+00 170 118 79
-1.371810e+00 3.677303e-01 -3.032825e+00 222 186 154
1.037137e+00 2.767717e-01 -2.953832e+00 220 191 151
1.243853e+00 3.387265e-01 -2.974482e+00 235 205 167
-1.436043e+00 -6.345600e-02 -2.919281e+00 255 239 238
-1.439909e+00 -4.907023e-02 -2.915023e+00 210 186 182
-1.366294e+00 -3.164966e-02 -2.930101e+00 188 169 163
-1.309525e+00 -5.839656e-02 -2.978195e+00 205 196 194
-1.457113e+00 6.686027e-03 -2.905779e+00 185 149 129
-1.395414e+00 1.381659e-02 -2.909715e+00 222 191 171
-1.356744e+00 3.952970e-03 -2.922882e+00 251 222 203
-1.388583e+00 1.438693e-02 -2.911574e+00 194 163 142
-1.389576e+00 1.299613e-02 -2.913889e+00 194 163 142
-1.389314e+00 4.244270e-02 -2.903733e+00 209 177 156
-1.575153e+00 6.269504e-02 -2.919760e+00 210 178 153
-1.389986e+00 6.379389e-02 -2.900217e+00 255 234 211
-1.464931e+00 9.004897e-02 -2.894254e+00 255 240 219
-1.297903e+00 6.883117e-02 -2.917956e+00 250 229 212
-1.427862e+00 9.908945e-02 -2.891544e+00 204 172 147
-1.464151e+00 1.005754e-01 -2.894142e+00 213 181 156
-1.462366e+00 1.082100e-01 -2.897183e+00 255 247 219
-1.351236e+00 1.016674e-01 -2.900514e+00 177 146 125
-1.373487e+00 1.290219e-01 -2.898710e+00 255 226 201
-1.534877e+00 1.393934e-01 -2.905359e+00 185 155 139
-1.327733e+00 1.376156e-01 -2.904344e+00 179 142 115
-1.225352e+00 1.274846e-01 -2.917407e+00 252 230 210
-1.260373e+00 1.432868e-01 -2.912229e+00 220 190 163
-1.258075e+00 1.531876e-01 -2.913484e+00 255 225 195
-1.143104e+00 1.496663e-01 -2.911726e+00 230 210 194
-1.405818e+00 1.662885e-01 -2.915803e+00 254 212 163
-1.262995e+00 1.605472e-01 -2.914427e+00 208 169 135
9.449281e-01 3.475094e-02 -2.864717e+00 201 152 100
-1.320549e+00 1.734041e-01 -2.920877e+00 255 218 173
-8.553056e-01 1.637238e-01 -2.886727e+00 208 195 186
-1.307398e+00 1.762741e-01 -2.923460e+00 230 186 141
-1.271528e+00 1.772152e-01 -2.922169e+00 187 142 100
-1.474698e+00 1.871050e-01 -2.935437e+00 229 190 159
-8.672546e-01 1.791265e-01 -2.886049e+00 229 216 200
1.228999e+00 1.064326e-01 -2.753495e+00 201 163 126
1.259385e+00 1.336036e-01 -2.719605e+00 226 188 149
-1.203453e+00 2.051009e-01 -2.930855e+00 253 209 170
1.234996e+00 1.273849e-01 -2.755674e+00 197 157 121
1.257670e+00 1.420395e-01 -2.730686e+00 215 175 143
-6.023834e-01 2.059099e-01 -2.855433e+00 255 248 224
-1.172028e+00 2.084846e-01 -2.927871e+00 250 207 165
1.310469e+00 1.597773e-01 -2.692663e+00 232 198 163
-1.264390e+00 2.077961e-01 -2.944503e+00 236 188 139
-1.471147e+00 2.129949e-01 -2.967100e+00 193 148 109
-1.133567e+00 2.126470e-01 -2.927636e+00 240 207 166
1.180804e+00 1.306041e-01 -2.773347e+00 181 135 98
1.367551e+00 1.694187e-01 -2.678542e+00 255 230 209
-3.890545e-01 2.111941e-01 -2.836882e+00 245 228 200
-1.267440e+00 2.117112e-01 -2.952618e+00 146 98 50
-1.267306e+00 2.117778e-01 -2.952444e+00 146 98 50
1.246912e+00 1.425802e-01 -2.752769e+00 195 155 120
-1.114224e+00 2.214543e-01 -2.927653e+00 227 195 156
1.261395e+00 1.541655e-01 -2.739788e+00 196 157 124
-1.307149e+00 2.161637e-01 -2.964434e+00 249 202 151
-1.280310e+00 2.228726e-01 -2.962311e+00 208 160 111
-1.084159e+00 2.290326e-01 -2.927362e+00 248 220 183
1.384339e+00 1.834733e-01 -2.690612e+00 252 221 200
-1.362785e+00 2.208975e-01 -2.990191e+00 99 51 7
-1.281662e+00 2.285695e-01 -2.968487e+00 254 214 164
1.270298e+00 1.706478e-01 -2.749704e+00 255 216 177
-1.207166e+00 2.453605e-01 -2.961136e+00 255 216 169
-8.900068e-01 2.563964e-01 -2.905217e+00 220 196 160
-1.329764e+00 2.443045e-01 -2.992361e+00 143 99 54
-1.329568e+00 2.444236e-01 -2.992042e+00 143 99 54
1.295664e+00 1.842853e-01 -2.752948e+00 255 217 178
-1.192126e+00 2.550213e-01 -2.964410e+00 206 162 115
-1.247850e+00 2.522498e-01 -2.977866e+00 255 215 170
1.258226e+00 1.772682e-01 -2.777260e+00 255 215 172
-3.051387e-01 2.643929e-01 -2.836089e+00 255 251 220
-8.370531e-01 2.705811e-01 -2.905360e+00 238 223 192
-1.132373e+00 2.651581e-01 -2.956315e+00 255 226 185
-1.225739e+00 2.639612e-01 -2.976505e+00 250 207 164
1.323013e+00 1.978282e-01 -2.748197e+00 254 218 181
-9.233201e-01 2.729202e-01 -2.921429e+00 240 224 198
-7.331724e-01 2.774772e-01 -2.893105e+00 236 221 189
9.783721e-01 1.893179e-01 -2.830074e+00 254 220 178
-4.513105e-01 2.843744e-01 -2.859778e+00 255 250 222
9.862810e-01 1.940531e-01 -2.834019e+00 208 169 126
-3.439087e-01 2.820268e-01 -2.850875e+00 255 249 219
-1.266885e+00 2.817102e-01 -2.991058e+00 155 110 69
1.160293e+00 1.882883e-01 -2.829616e+00 255 234 193
-2.229872e-01 2.837292e-01 -2.841757e+00 253 229 193
-1.305051e+00 2.823357e-01 -2.998282e+00 195 148 106
9.734237e-01 1.982321e-01 -2.839490e+00 248 215 172
1.283524e+00 2.016968e-01 -2.790374e+00 207 163 118
-1.229603e+00 2.893963e-01 -2.983532e+00 252 210 168
-1.291708e+00 2.896630e-01 -2.997000e+00 236 192 147
-1.265462e+00 2.899134e-01 -2.994110e+00 251 207 160
-8.934068e-01 2.958237e-01 -2.931780e+00 255 245 213
4.958727e-01 2.449429e-01 -2.834429e+00 255 246 209
-1.764482e-01 2.967660e-01 -2.845827e+00 223 198 158
1.284098e+00 2.123701e-01 -2.804659e+00 218 176 134
-7.041793e-02 2.967165e-01 -2.837016e+00 254 231 197
-1.277849e+00 3.049538e-01 -3.002598e+00 253 211 163
4.959369e-01 2.569894e-01 -2.841915e+00 255 232 196
-1.243397e+00 3.046020e-01 -3.001135e+00 201 157 112
-1.260733e+00 3.069795e-01 -3.002153e+00 165 122 80
-1.420527e-01 3.032276e-01 -2.853234e+00 255 245 209
7.918940e-01 2.296840e-01 -2.870243e+00 230 210 177
-4.406439e-01 3.131883e-01 -2.881863e+00 253 233 197
-1.133953e-03 3.006110e-01 -2.846615e+00 254 233 199
-1.352864e-01 3.070013e-01 -2.855291e+00 237 215 177
-1.261216e+00 3.141963e-01 -3.006798e+00 231 188 145
-1.272786e+00 3.152821e-01 -3.008237e+00 196 153 110
7.859291e-01 2.344932e-01 -2.874132e+00 253 233 200
-1.078780e+00 3.155044e-01 -2.989406e+00 245 210 170
-8.415508e-02 3.107065e-01 -2.857313e+00 220 197 163
-1.358862e+00 3.249310e-01 -3.014902e+00 239 196 161
-1.409856e+00 3.390088e-01 -3.009611e+00 147 107 82
1.126873e+00 2.330654e-01 -2.850589e+00 255 216 174
-1.394832e+00 3.442149e-01 -3.011679e+00 110 74 58
-1.429956e+00 3.549662e-01 -3.012024e+00 204 163 135
-1.340716e-01 3.285576e-01 -2.882636e+00 235 213 173
7.089267e-02 3.192593e-01 -2.872381e+00 205 184 150
-8.497609e-01 3.319349e-01 -2.993223e+00 134 112 81
-1.381623e+00 3.566332e-01 -3.024907e+00 141 99 75
-1.409612e+00 3.646110e-01 -3.018268e+00 200 156 124
-1.361826e+00 3.674749e-01 -3.039667e+00 103 63 28
1.163505e+00 2.725450e-01 -2.872094e+00 247 208 169
1.108622e+00 2.717900e-01 -2.917866e+00 230 198 160
1.108392e+00 2.720542e-01 -2.917273e+00 230 198 160
1.170003e+00 3.009328e-01 -2.928457e+00 237 205 167
1.203232e+00 3.180122e-01 -2.920785e+00 255 227 187
1.090635e+00 3.088000e-01 -2.972959e+00 255 227 184
1.125577e+00 3.122801e-01 -2.964923e+00 222 185 141
1.125589e+00 3.124201e-01 -2.964854e+00 222 185 141
1.186705e+00 3.262846e-01 -2.945245e+00 255 234 191
1.164016e+00 3.269835e-01 -2.969483e+00 214 181 143
1.209714e+00 3.343782e-01 -2.949328e+00 241 208 175
-1.456026e+00 -7.033371e-02 -2.921488e+00 255 244 240
-1.333649e+00 -9.333309e-02 -2.959033e+00 238 224 222
-1.426331e+00 -6.208404e-02 -2.920284e+00 172 151 148
-1.470363e+00 -4.441693e-02 -2.920207e+00 174 142 129
-1.434911e+00 -3.755874e-02 -2.910721e+00 254 229 224
-1.555580e+00 -2.080662e-02 -2.938222e+00 252 219 200
-1.318465e+00 -4.853415e-02 -2.970419e+00 132 106 105
-1.488381e+00 9.550381e-03 -2.910052e+00 238 203 181
-1.485664e+00 1.794161e-02 -2.909501e+00 184 150 125
-1.503214e+00 3.035309e-02 -2.914332e+00 107 67 40
-1.414919e+00 3.657654e-02 -2.902984e+00 255 232 208
-1.506199e+00 4.530440e-02 -2.910443e+00 106 69 43
-1.521236e+00 5.173439e-02 -2.910299e+00 214 183 163
-1.427443e+00 5.314894e-02 -2.900069e+00 255 244 224
-1.445758e+00 5.435420e-02 -2.900277e+00 255 246 229
-1.496366e+00 5.621946e-02 -2.903485e+00 255 241 227
-1.419898e+00 5.904071e-02 -2.904389e+00 255 250 229
-1.570661e+00 8.206181e-02 -2.914535e+00 255 234 210
-1.529765e+00 9.289675e-02 -2.906451e+00 224 197 176
-1.378283e+00 9.423730e-02 -2.895708e+00 189 157 136
-1.442122e+00 1.060004e-01 -2.892820e+00 255 230 205
-1.365733e+00 1.062776e-01 -2.896926e+00 242 211 190
-1.574000e+00 1.130875e-01 -2.914725e+00 211 179 159
-1.375555e+00 1.169575e-01 -2.895224e+00 208 176 153
-1.267334e+00 1.076228e-01 -2.914932e+00 255 243 229
-1.255322e+00 1.066764e-01 -2.918485e+00 255 251 242
-1.319974e+00 1.239840e-01 -2.903352e+00 252 217 197
-1.110141e+00 1.087906e-01 -2.920257e+00 205 200 204
-1.292278e+00 1.288663e-01 -2.910900e+00 217 187 161
-1.291760e+00 1.370141e-01 -2.908795e+00 255 224 196
-1.351189e+00 1.530385e-01 -2.904854e+00 255 227 188
-1.351144e+00 1.529308e-01 -2.905057e+00 255 227 188
-1.464319e+00 1.627887e-01 -2.915066e+00 239 195 159
1.266931e+00 9.534780e-02 -2.695276e+00 193 159 124
-1.365666e+00 1.621807e-01 -2.909075e+00 255 218 176
-1.365360e+00 1.622634e-01 -2.908774e+00 255 218 176
1.259265e+00 9.292685e-02 -2.702055e+00 255 240 209
-1.170833e+00 1.542888e-01 -2.911076e+00 255 240 218
-1.224306e+00 1.566005e-01 -2.913154e+00 254 211 178
-1.340830e+00 1.653673e-01 -2.913726e+00 250 205 160
-1.530397e+00 1.794355e-01 -2.911407e+00 215 170 131
-1.473801e+00 1.704783e-01 -2.922194e+00 222 179 137
-1.283324e+00 1.650466e-01 -2.915088e+00 202 158 120
-1.330707e+00 1.684581e-01 -2.918013e+00 233 189 144
-1.184972e+00 1.669837e-01 -2.912950e+00 255 220 184
-1.231695e+00 1.698596e-01 -2.914416e+00 221 178 141
-1.440991e+00 1.771017e-01 -2.933659e+00 138 89 46
-1.440796e+00 1.771449e-01 -2.933439e+00 138 89 46
-1.064315e+00 1.728671e-01 -2.899613e+00 255 244 220
-1.235652e+00 1.743323e-01 -2.918480e+00 245 203 165
-1.434568e+00 1.782124e-01 -2.937708e+00 140 91 50
-1.469013e+00 1.881460e-01 -2.941291e+00 144 103 71
-1.356164e+00 1.835346e-01 -2.937071e+00 221 171 122
-1.302074e+00 1.858009e-01 -2.932236e+00 233 187 137
-1.429996e+00 1.878636e-01 -2.947262e+00 200 153 107
1.313760e+00 1.442046e-01 -2.674517e+00 222 191 163
-1.314041e+00 1.901601e-01 -2.937168e+00 242 196 147
-1.420943e+00 1.911035e-01 -2.948615e+00 219 171 125
-1.502689e+00 1.971892e-01 -2.949424e+00 166 125 95
-9.494677e-01 1.942709e-01 -2.886689e+00 243 232 210
-1.172279e+00 1.920713e-01 -2.918478e+00 254 212 170
-1.306670e+00 1.916024e-01 -2.936670e+00 237 191 142
-1.402124e+00 1.934464e-01 -2.954627e+00 141 92 49
-1.339159e+00 1.944427e-01 -2.951103e+00 87 38 3
-1.361382e+00 1.979282e-01 -2.952004e+00 218 167 119
-1.294966e+00 1.995086e-01 -2.943839e+00 255 218 169
-1.452875e+00 1.997296e-01 -2.965801e+00 228 184 139
1.185307e+00 1.237137e-01 -2.770486e+00 237 193 158
-1.056867e+00 2.080992e-01 -2.911923e+00 255 241 208
-1.229869e+00 2.066429e-01 -2.937387e+00 246 201 159
-1.346356e+00 2.051677e-01 -2.960008e+00 184 132 84
-1.464425e+00 2.126661e-01 -2.969151e+00 234 189 149
6.950638e-01 1.312421e-01 -2.839432e+00 12 4 0
1.298401e+00 1.628642e-01 -2.706310e+00 224 185 146
-1.266293e+00 2.191508e-01 -2.955816e+00 255 213 164
-1.323986e+00 2.188052e-01 -2.969896e+00 254 206 158
-1.104072e+00 2.305864e-01 -2.930909e+00 255 243 204
-1.104114e+00 2.305869e-01 -2.930911e+00 255 243 204
-1.802795e-01 2.211051e-01 -2.826441e+00 255 246 217
-1.250410e+00 2.278028e-01 -2.959622e+00 186 139 93
-1.250417e+00 2.277998e-01 -2.959592e+00 186 139 93
-1.164205e+00 2.341988e-01 -2.944971e+00 237 200 155
-1.389759e+00 2.251279e-01 -2.992331e+00 149 103 65
-1.249307e+00 2.335815e-01 -2.963231e+00 255 209 163
-1.276308e+00 2.365891e-01 -2.969236e+00 217 171 122
1.232384e+00 1.601315e-01 -2.774023e+00 216 174 136
-1.213490e+00 2.395224e-01 -2.960313e+00 255 214 167
1.243527e+00 1.672382e-01 -2.776976e+00 222 180 140
1.243527e+00 1.672382e-01 -2.776976e+00 222 180 140
1.181334e+00 1.608323e-01 -2.802082e+00 229 194 151
1.181084e+00 1.612200e-01 -2.801433e+00 229 194 151
-1.397916e+00 2.483189e-01 -2.995931e+00 255 215 174
-1.299138e+00 2.513325e-01 -2.988843e+00 251 208 163
-1.258848e-01 2.561837e-01 -2.823346e+00 255 243 206
1.332821e+00 1.978486e-01 -2.737418e+00 255 231 193
-6.105842e-01 2.692919e-01 -2.870814e+00 255 242 212
9.681322e-01 1.826097e-01 -2.828436e+00 231 196 154
-1.126462e+00 2.692996e-01 -2.958586e+00 233 196 155
-1.126462e+00 2.695492e-01 -2.958060e+00 233 196 155
-1.313466e+00 2.668425e-01 -2.992899e+00 255 231 191
-1.201202e+00 2.698943e-01 -2.973479e+00 255 223 179
-1.330705e+00 2.696096e-01 -2.999481e+00 130 85 43
-1.424444e+00 2.757311e-01 -2.998690e+00 221 176 147
1.031081e+00 1.850684e-01 -2.829845e+00 214 176 131
3.860937e-01 2.361007e-01 -2.825279e+00 255 245 213
-1.274910e+00 2.757786e-01 -2.990654e+00 243 198 156
3.268817e-01 2.467399e-01 -2.824558e+00 255 237 204
9.987070e-01 1.947157e-01 -2.833090e+00 213 175 131
9.282092e-01 1.951701e-01 -2.841430e+00 252 221 177
-1.134570e+00 2.816576e-01 -2.967747e+00 171 134 91
-1.087307e+00 2.829333e-01 -2.959136e+00 255 233 190
9.385180e-01 1.948744e-01 -2.846529e+00 248 216 176
9.089362e-01 1.962992e-01 -2.848069e+00 223 187 145
9.790470e-01 2.004214e-01 -2.835467e+00 251 216 172
-1.333108e+00 2.849480e-01 -2.999845e+00 222 177 136
-1.137577e+00 2.908843e-01 -2.968171e+00 255 225 182
-1.309119e+00 2.885593e-01 -2.999210e+00 245 201 156
-1.309159e+00 2.886075e-01 -2.999187e+00 245 201 156
-1.301232e+00 2.889468e-01 -2.998820e+00 241 196 154
-1.325814e+00 2.922752e-01 -3.003132e+00 246 203 160
-4.762378e-01 2.991051e-01 -2.871985e+00 237 218 186
-1.080231e+00 2.949926e-01 -2.966790e+00 255 234 193
-4.638338e-01 3.004049e-01 -2.873632e+00 223 204 172
-1.231266e+00 2.960641e-01 -2.992069e+00 205 162 118
4.954663e-01 2.493327e-01 -2.839425e+00 236 214 177
-4.609174e-01 3.058486e-01 -2.875737e+00 255 241 208
1.068579e+00 2.101858e-01 -2.847052e+00 255 217 167
-1.339766e+00 3.067903e-01 -3.006325e+00 255 231 196
-4.590031e-01 3.102958e-01 -2.880394e+00 235 215 182
-1.043793e+00 3.072566e-01 -2.969875e+00 250 220 182
-1.942669e-01 3.042594e-01 -2.854475e+00 254 229 189
1.300026e+00 2.193524e-01 -2.815929e+00 250 211 170
-1.310243e+00 3.139994e-01 -3.009822e+00 200 156 111
-8.789562e-01 3.141361e-01 -2.948670e+00 255 235 202
-2.579171e-02 3.023691e-01 -2.847905e+00 250 231 198
-1.332198e+00 3.194073e-01 -3.012538e+00 246 202 163
7.709869e-02 2.995830e-01 -2.847936e+00 255 234 200
6.924030e-02 3.018375e-01 -2.851489e+00 222 200 168
-1.248265e+00 3.202557e-01 -3.011399e+00 174 129 87
-1.256723e+00 3.212700e-01 -3.011100e+00 181 136 95
-1.256723e+00 3.212700e-01 -3.011100e+00 181 136 95
-2.552187e-01 3.181586e-01 -2.872162e+00 191 165 130
1.259008e+00 2.291950e-01 -2.831440e+00 225 181 136
1.259776e+00 2.281516e-01 -2.832873e+00 225 181 136
1.116506e+00 2.288340e-01 -2.855404e+00 244 200 155
1.090328e+00 2.225728e-01 -2.871297e+00 200 151 100
-2.476380e-01 3.246968e-01 -2.878837e+00 191 166 130
-3.025813e-01 3.269202e-01 -2.884595e+00 245 223 186
-1.293995e+00 3.370091e-01 -3.024308e+00 251 206 164
-1.271594e+00 3.367902e-01 -3.029350e+00 206 165 122
-1.386518e+00 3.510711e-01 -3.019288e+00 113 70 51
-1.434008e+00 3.605634e-01 -3.015186e+00 149 105 77
-2.619363e-02 3.294520e-01 -2.873374e+00 247 225 188
7.877237e-02 3.245151e-01 -2.870288e+00 239 219 184
-1.329152e+00 3.491809e-01 -3.031641e+00 213 168 127
-1.340943e+00 3.543765e-01 -3.034103e+00 163 119 83
-1.355993e+00 3.610101e-01 -3.032303e+00 208 168 133
-7.081264e-02 3.367172e-01 -2.889802e+00 211 189 150
1.452510e-01 3.266711e-01 -2.885081e+00 207 186 149
-1.423070e+00 3.770878e-01 -3.025749e+00 92 43 6
-1.431807e+00 3.805779e-01 -3.024243e+00 223 177 142
1.131679e+00 2.688391e-01 -2.888031e+00 214 180 143
-1.400710e+00 3.882544e-01 -3.044421e+00 192 151 119
1.128310e+00 2.736402e-01 -2.902896e+00 255 227 190
1.189226e+00 2.898930e-01 -2.887631e+00 255 213 167
1.058942e+00 2.902081e-01 -2.967041e+00 255 237 195
1.220456e+00 3.191741e-01 -2.885638e+00 255 218 173
1.147050e+00 3.168272e-01 -2.959786e+00 255 241 205
1.154504e+00 3.294754e-01 -2.980994e+00 176 142 104
-1.457728e+00 -6.362743e-02 -2.918116e+00 255 243 234
-1.417969e+00 -5.511399e-02 -2.922402e+00 229 210 206
-1.352388e+00 -7.763543e-02 -2.951748e+00 228 199 183
-1.412912e+00 -4.507400e-02 -2.915502e+00 255 241 237
-1.392211e+00 -4.163957e-02 -2.918916e+00 184 162 157
-1.316481e+00 -5.879879e-02 -2.970625e+00 223 207 200
-1.512159e+00 1.039423e-02 -2.917106e+00 219 182 164
-1.486962e+00 2.496706e-02 -2.909767e+00 255 246 225
-1.496712e+00 2.936660e-02 -2.910107e+00 163 125 104
-1.530471e+00 2.662211e-02 -2.917350e+00 247 215 194
-1.506896e+00 3.136128e-02 -2.911386e+00 245 208 181
-1.510800e+00 4.924594e-02 -2.907585e+00 255 241 225
-1.316714e+00 2.833621e-02 -2.928724e+00 188 166 152
-1.397278e+00 5.349857e-02 -2.902667e+00 192 164 142
-1.478755e+00 6.081691e-02 -2.902056e+00 139 110 92
-1.377599e+00 5.159247e-02 -2.905728e+00 193 161 140
-1.297856e+00 2.764421e-02 -2.936519e+00 255 239 228
-1.386740e+00 5.728059e-02 -2.900719e+00 170 142 120
-1.372674e+00 6.037780e-02 -2.904803e+00 235 204 184
-1.260182e+00 1.192175e-02 -2.971499e+00 188 182 184
-1.350207e+00 6.021775e-02 -2.909548e+00 236 208 187
-1.247057e+00 1.090793e-02 -2.981416e+00 114 98 96
-1.552103e+00 7.546673e-02 -2.913398e+00 146 111 85
-1.464765e+00 8.130363e-02 -2.895370e+00 215 192 174
-1.515277e+00 8.503649e-02 -2.903133e+00 255 247 228
-1.352724e+00 7.334972e-02 -2.905563e+00 200 169 148
-1.539991e+00 8.626905e-02 -2.909201e+00 255 238 208
-1.516318e+00 8.935140e-02 -2.905322e+00 181 155 133
-1.307652e+00 6.966544e-02 -2.915366e+00 196 173 159
-1.330592e+00 7.961689e-02 -2.908780e+00 199 172 155
-1.402658e+00 9.417460e-02 -2.894885e+00 238 208 183
-1.334793e+00 8.474107e-02 -2.909523e+00 201 172 154
-1.292137e+00 8.115184e-02 -2.918387e+00 248 229 214
-1.276101e+00 9.284856e-02 -2.915515e+00 240 223 213
-1.339771e+00 1.181232e-01 -2.899440e+00 255 225 202
1.268480e+00 6.207040e-02 -2.683651e+00 240 204 168
1.268464e+00 6.210749e-02 -2.683641e+00 240 204 168
-1.288221e+00 1.170985e-01 -2.911146e+00 255 227 203
-1.231940e+00 1.271022e-01 -2.916140e+00 233 215 196
-1.295356e+00 1.416675e-01 -2.909930e+00 200 164 134
-1.277759e+00 1.412970e-01 -2.910620e+00 255 225 200
-1.483182e+00 1.609180e-01 -2.911149e+00 175 133 95
-1.489272e+00 1.650267e-01 -2.913959e+00 216 172 137
-1.532772e+00 1.730634e-01 -2.907141e+00 138 90 52
-1.274330e+00 1.520588e-01 -2.912691e+00 218 182 154
-1.195621e+00 1.474380e-01 -2.913038e+00 255 234 218
-1.338799e+00 1.583379e-01 -2.912778e+00 147 102 59
-1.115114e+00 1.572792e-01 -2.906778e+00 214 191 170
-1.115008e+00 1.572936e-01 -2.906687e+00 214 191 170
-1.145790e+00 1.593304e-01 -2.908219e+00 255 236 213
-1.506996e+00 1.828615e-01 -2.914915e+00 200 159 128
-1.438330e+00 1.725659e-01 -2.927683e+00 192 146 102
-1.498830e+00 1.825534e-01 -2.920700e+00 167 132 104
-1.207140e+00 1.665987e-01 -2.912737e+00 197 154 119
-1.434717e+00 1.754000e-01 -2.930381e+00 225 178 132
-1.327415e+00 1.750958e-01 -2.922326e+00 213 169 122
1.268610e+00 1.152251e-01 -2.700375e+00 251 217 184
-1.133037e+00 1.705526e-01 -2.908969e+00 221 193 163
-1.359096e+00 1.781778e-01 -2.927524e+00 227 179 131
-1.462677e+00 1.820832e-01 -2.936871e+00 232 194 156
-1.351940e+00 1.797125e-01 -2.932546e+00 129 81 33
-1.352208e+00 1.794375e-01 -2.932949e+00 129 81 33
-1.364217e+00 1.816500e-01 -2.931578e+00 172 122 73
-1.412157e+00 1.797730e-01 -2.939277e+00 96 49 7
-1.433999e+00 1.794238e-01 -2.945110e+00 203 155 109
-1.047160e+00 1.772402e-01 -2.900684e+00 240 222 211
-1.458577e+00 1.849951e-01 -2.941459e+00 174 130 93
-1.440331e+00 1.853411e-01 -2.943152e+00 173 126 82
-1.318835e+00 1.834481e-01 -2.931688e+00 159 112 66
-1.241491e+00 1.852764e-01 -2.922150e+00 255 222 180
-1.229150e+00 1.860616e-01 -2.921809e+00 252 208 171
-1.466665e+00 1.926230e-01 -2.944062e+00 216 176 141
-1.180160e+00 1.870474e-01 -2.919339e+00 179 134 94
-1.125917e+00 1.896229e-01 -2.913205e+00 255 238 202
-1.396960e+00 1.899803e-01 -2.948093e+00 232 185 139
1.167870e+00 1.029694e-01 -2.775265e+00 255 222 193
-1.388375e+00 1.935012e-01 -2.953217e+00 114 63 20
8.782645e-01 7.069026e-02 -2.884570e+00 192 151 99
-1.181001e+00 1.992875e-01 -2.921344e+00 252 208 167
-1.289235e+00 1.961756e-01 -2.941650e+00 153 105 60
-1.127565e+00 1.996224e-01 -2.917211e+00 227 192 152
-1.253959e+00 2.001964e-01 -2.934819e+00 252 204 158
-1.239615e+00 2.001223e-01 -2.934307e+00 218 171 127
-1.401816e+00 1.979700e-01 -2.959519e+00 182 135 93
-1.103172e+00 2.012402e-01 -2.914937e+00 224 189 149
-1.341513e+00 1.996777e-01 -2.952872e+00 252 205 155
-1.351311e+00 2.004977e-01 -2.953900e+00 220 172 124
-1.321689e+00 2.030708e-01 -2.953168e+00 253 206 157
-1.371241e+00 2.024661e-01 -2.961027e+00 205 154 107
-1.353358e+00 2.037324e-01 -2.958932e+00 168 120 72
-1.320035e+00 2.068452e-01 -2.956753e+00 193 145 97
-1.320035e+00 2.068452e-01 -2.956753e+00 193 145 97
-1.333128e+00 2.062264e-01 -2.958614e+00 201 153 104
-1.369647e+00 2.062906e-01 -2.965009e+00 150 98 51
-1.107137e+00 2.134385e-01 -2.922335e+00 255 229 191
-5.969208e-01 2.132325e-01 -2.854468e+00 229 210 180
-1.185502e+00 2.159819e-01 -2.937629e+00 176 129 87
1.246458e+00 1.408949e-01 -2.754964e+00 183 143 108
-1.308505e+00 2.185453e-01 -2.966544e+00 251 203 153
-1.251380e+00 2.226471e-01 -2.955770e+00 255 210 164
-1.217055e+00 2.240154e-01 -2.949232e+00 254 210 165
-8.585104e-01 2.323888e-01 -2.889646e+00 230 214 181
-1.306587e+00 2.223899e-01 -2.968692e+00 188 140 91
-8.890954e-01 2.322279e-01 -2.897149e+00 255 245 212
-1.211024e+00 2.284615e-01 -2.953870e+00 187 143 96
-1.446085e+00 2.328700e-01 -2.983267e+00 254 211 174
1.379573e+00 1.848942e-01 -2.691721e+00 213 182 155
1.237329e+00 1.577795e-01 -2.770606e+00 255 217 179
-1.390164e+00 2.319654e-01 -2.992897e+00 252 212 177
1.190765e+00 1.524958e-01 -2.793682e+00 160 117 75
1.189076e+00 1.547511e-01 -2.790306e+00 160 117 75
-1.130684e+00 2.435096e-01 -2.943251e+00 255 222 178
-1.131996e+00 2.421007e-01 -2.945796e+00 255 222 178
-1.390150e+00 2.376028e-01 -2.992654e+00 188 141 105
-9.196433e-01 2.502983e-01 -2.908613e+00 237 220 192
1.287929e+00 1.778335e-01 -2.743014e+00 253 216 174
1.365386e-01 2.219280e-01 -2.817429e+00 209 193 168
-9.003305e-01 2.515354e-01 -2.904242e+00 255 240 203
9.051374e-01 1.645953e-01 -2.824191e+00 245 209 159
-1.276937e+00 2.424823e-01 -2.987494e+00 212 168 121
1.174916e+00 1.601854e-01 -2.806611e+00 222 185 141
1.172861e+00 1.627266e-01 -2.802519e+00 222 185 141
-1.062985e+00 2.552356e-01 -2.935749e+00 223 190 150
-1.063069e+00 2.549088e-01 -2.936457e+00 223 190 150
-1.171161e+00 2.517137e-01 -2.957944e+00 252 210 164
-4.902478e-01 2.581061e-01 -2.852259e+00 238 223 192
-1.207861e+00 2.512787e-01 -2.965578e+00 214 170 125
1.188651e+00 1.659300e-01 -2.801421e+00 255 232 186
-1.057537e+00 2.585791e-01 -2.936668e+00 255 233 194
-1.321952e+00 2.492999e-01 -2.990441e+00 255 215 170
1.027592e+00 1.722529e-01 -2.820222e+00 248 206 159
-3.312843e-01 2.619615e-01 -2.838679e+00 255 250 221
-8.833689e-01 2.672232e-01 -2.910647e+00 255 237 199
-1.221805e+00 2.587402e-01 -2.973647e+00 199 155 110
-1.378796e+00 2.590012e-01 -2.995640e+00 209 166 125
-1.193341e+00 2.611349e-01 -2.968454e+00 242 198 151
-1.193581e+00 2.609810e-01 -2.968673e+00 242 198 151
-1.389167e+00 2.599754e-01 -2.997124e+00 253 209 170
-1.422793e+00 2.659868e-01 -2.992216e+00 224 175 143
-1.423409e+00 2.654825e-01 -2.993774e+00 224 175 143
-1.418482e+00 2.654654e-01 -2.993784e+00 160 113 82
-1.234228e+00 2.614898e-01 -2.977855e+00 204 161 116
1.243291e+00 1.782846e-01 -2.793077e+00 228 186 144
-1.260434e+00 2.621653e-01 -2.982330e+00 248 204 159
-1.260484e+00 2.624109e-01 -2.982007e+00 248 204 159
-1.385184e+00 2.641678e-01 -2.998399e+00 198 154 115
-1.366896e+00 2.641026e-01 -2.997547e+00 150 106 70
1.334230e+00 2.004803e-01 -2.741680e+00 219 181 144
9.974361e-01 1.843305e-01 -2.827614e+00 225 190 150
-1.348110e+00 2.663948e-01 -2.997943e+00 255 213 172
-7.160160e-01 2.797915e-01 -2.890435e+00 237 222 191
1.331238e+00 2.038287e-01 -2.758140e+00 252 216 179
1.338332e+00 2.066657e-01 -2.751521e+00 202 164 127
-7.694527e-01 2.824234e-01 -2.904086e+00 233 221 187
-1.082901e+00 2.790725e-01 -2.955096e+00 206 173 132
-3.336581e-02 2.696776e-01 -2.826396e+00 255 241 204
-1.285534e+00 2.760542e-01 -2.991726e+00 216 171 129
1.270950e+00 1.947300e-01 -2.794000e+00 212 169 124
-3.299047e-01 2.836143e-01 -2.847274e+00 255 247 217
-1.189588e+00 2.794847e-01 -2.976894e+00 228 186 144
-1.356300e+00 2.806358e-01 -3.001715e+00 255 219 180
-1.104093e+00 2.850362e-01 -2.962998e+00 203 162 118
8.976578e-01 1.955969e-01 -2.851419e+00 230 198 157
1.020757e+00 1.958157e-01 -2.839149e+00 250 212 167
1.356014e+00 2.139847e-01 -2.760862e+00 251 216 179
1.370440e+00 2.149353e-01 -2.757872e+00 233 194 155
1.340178e+00 2.118833e-01 -2.768372e+00 253 217 181
-1.104760e+00 2.908664e-01 -2.965916e+00 255 223 179
-1.411963e+00 2.963739e-01 -3.000860e+00 187 150 121
-7.780081e-02 2.845402e-01 -2.834505e+00 250 226 192
1.080495e+00 1.992684e-01 -2.837443e+00 225 186 145
1.080452e+00 1.994098e-01 -2.837138e+00 225 186 145
5.106488e-01 2.410113e-01 -2.836811e+00 255 243 209
-1.251555e+00 2.922866e-01 -2.992924e+00 254 211 167
-1.258081e+00 2.939559e-01 -2.995309e+00 199 155 110
-1.347861e+00 2.972360e-01 -3.004136e+00 255 225 190
-1.118511e+00 2.967838e-01 -2.974240e+00 254 219 176
-8.998962e-01 3.007289e-01 -2.937086e+00 238 215 184
1.000778e+00 2.035478e-01 -2.862818e+00 218 181 137
-1.114524e+00 3.003443e-01 -2.976492e+00 200 161 116
-1.382347e+00 3.056340e-01 -3.007134e+00 137 100 74
-1.251363e+00 3.006136e-01 -2.998833e+00 190 147 104
-1.303815e+00 3.017074e-01 -3.004025e+00 192 147 105
-1.403500e+00 3.124130e-01 -3.002437e+00 223 186 157
-8.651760e-02 2.975940e-01 -2.845680e+00 255 241 209
-1.366103e+00 3.107829e-01 -3.008968e+00 240 200 167
-1.039357e+00 3.075202e-01 -2.970523e+00 247 216 178
-1.355714e+00 3.106710e-01 -3.011271e+00 247 204 169
-8.293537e-02 3.000633e-01 -2.849708e+00 232 209 175
-1.233805e+00 3.091090e-01 -3.000865e+00 252 212 167
-1.233608e+00 3.092051e-01 -3.000324e+00 252 212 167
-1.342675e+00 3.122243e-01 -3.009448e+00 220 176 139
-1.380796e+00 3.152571e-01 -3.009701e+00 151 115 98
-7.055730e-01 3.137079e-01 -2.916906e+00 238 218 183
-4.636412e-01 3.136411e-01 -2.885156e+00 255 238 203
-4.636936e-01 3.135903e-01 -2.885146e+00 255 238 203
-1.040837e+00 3.115523e-01 -2.974389e+00 187 153 110
-3.441704e-01 3.132985e-01 -2.872037e+00 255 232 193
-1.282425e+00 3.141231e-01 -3.009973e+00 224 182 134
-1.372780e+00 3.213910e-01 -3.013018e+00 198 158 133
-1.382856e+00 3.222719e-01 -3.012974e+00 98 64 52
5.604965e-02 3.021279e-01 -2.845116e+00 255 243 208
-1.219937e+00 3.162212e-01 -3.006886e+00 186 147 105
1.050120e+00 2.179676e-01 -2.873659e+00 255 227 183
-1.052668e-01 3.105381e-01 -2.856761e+00 255 233 196
-1.226599e+00 3.186752e-01 -3.009562e+00 225 186 143
-1.082356e+00 3.199052e-01 -2.995228e+00 167 133 96
-1.233118e+00 3.201828e-01 -3.018841e+00 148 106 65
1.011870e+00 2.228211e-01 -2.883787e+00 230 198 157
-1.253037e+00 3.242513e-01 -3.016917e+00 222 175 133
9.824069e-01 2.255583e-01 -2.886413e+00 234 202 163
-1.229170e+00 3.235152e-01 -3.019157e+00 230 197 159
1.582356e-01 3.055969e-01 -2.852955e+00 253 230 196
1.071594e+00 2.276295e-01 -2.878881e+00 255 232 187
-2.174686e-01 3.249330e-01 -2.875151e+00 236 211 170
-1.284128e+00 3.308340e-01 -3.021251e+00 198 153 111
8.290163e-01 2.413419e-01 -2.892911e+00 255 237 204
1.176082e+00 2.396439e-01 -2.853470e+00 212 172 136
-1.369809e+00 3.477493e-01 -3.023829e+00 93 52 25
-1.299058e+00 3.399686e-01 -3.029584e+00 172 129 87
1.101974e+00 2.414492e-01 -2.872896e+00 255 211 162
1.042035e+00 2.367285e-01 -2.896695e+00 237 211 176
1.390016e-01 3.179223e-01 -2.871577e+00 211 189 152
9.428254e-02 3.223775e-01 -2.872562e+00 239 219 182
-1.471575e+00 3.667524e-01 -3.025699e+00 218 169 136
1.009745e+00 2.439547e-01 -2.904935e+00 242 214 177
2.940817e-01 3.169803e-01 -2.898361e+00 208 188 155
-1.378923e+00 3.754229e-01 -3.041452e+00 113 77 43
-2.733881e-02 3.412829e-01 -2.911180e+00 211 192 160
-1.367149e+00 3.750048e-01 -3.048374e+00 209 173 137
1.125430e+00 2.699940e-01 -2.898494e+00 195 160 122
1.141751e+00 2.756342e-01 -2.889663e+00 255 233 197
1.066241e+00 2.864032e-01 -2.959169e+00 225 193 155
1.030445e+00 2.865936e-01 -2.982914e+00 195 167 130
1.102110e+00 2.950022e-01 -2.958825e+00 234 208 175
1.084857e+00 2.958087e-01 -2.965871e+00 201 165 124
1.084988e+00 2.955187e-01 -2.966397e+00 201 165 124
1.246692e+00 3.231223e-01 -2.886527e+00 207 164 121
1.182849e+00 3.121962e-01 -2.934815e+00 255 231 193
1.181306e+00 3.145002e-01 -2.940333e+00 224 191 153
1.068702e+00 3.036212e-01 -2.989377e+00 201 168 124
1.202392e+00 3.202443e-01 -2.929776e+00 164 129 91
1.055098e+00 3.012869e-01 -2.999298e+00 247 215 177
1.208335e+00 3.243542e-01 -2.922075e+00 255 220 181
1.114505e+00 3.235371e-01 -2.986024e+00 254 221 186
1.175943e+00 3.318916e-01 -2.964512e+00 190 156 118
1.131962e+00 3.298258e-01 -2.984711e+00 236 204 170
1.118257e+00 3.325003e-01 -3.005951e+00 198 168 134
-1.375813e+00 -9.421801e-02 -2.941253e+00 188 169 165
-1.374603e+00 -7.890864e-02 -2.939713e+00 158 137 134
-1.430069e+00 -5.331307e-02 -2.915594e+00 226 206 205
-1.345888e+00 -7.404748e-02 -2.959095e+00 208 181 170
-1.425176e+00 -2.288065e-02 -2.913441e+00 206 180 173
-1.346622e+00 -5.026738e-02 -2.950209e+00 218 206 209
-1.341946e+00 -4.660285e-02 -2.950157e+00 200 194 199
-1.471216e+00 9.047453e-04 -2.907615e+00 253 218 195
-1.471265e+00 1.023859e-03 -2.907428e+00 253 218 195
-1.338951e+00 -1.415068e-02 -2.935786e+00 188 168 161
-1.379240e+00 4.538780e-03 -2.915457e+00 255 242 223
-1.360600e+00 4.072107e-03 -2.922392e+00 245 216 197
-1.498653e+00 2.420750e-02 -2.911233e+00 237 201 179
-1.360781e+00 8.461088e-03 -2.922831e+00 174 143 122
-1.360781e+00 8.461088e-03 -2.922831e+00 174 143 122
-1.322082e+00 -2.991949e-03 -2.938906e+00 243 224 218
-1.344286e+00 2.511872e-02 -2.917465e+00 208 176 155
-1.367938e+00 3.272777e-02 -2.911333e+00 186 153 134
-1.313402e+00 1.790498e-02 -2.935770e+00 186 167 153
1.297517e+00 -4.728656e-03 -2.675088e+00 201 175 158
1.292602e+00 -7.269565e-02 -2.796258e+00 131 100 62
-1.330708e+00 3.742220e-02 -2.921031e+00 252 223 205
-1.501666e+00 5.863151e-02 -2.906323e+00 221 199 185
-1.313680e+00 3.583580e-02 -2.926516e+00 236 213 199
-1.326683e+00 4.195835e-02 -2.920275e+00 144 112 91
-1.472078e+00 6.714217e-02 -2.898795e+00 255 230 209
-1.478602e+00 6.760513e-02 -2.899095e+00 255 247 227
-1.356883e+00 5.541853e-02 -2.909161e+00 158 125 105
-1.476277e+00 7.104134e-02 -2.900155e+00 170 144 123
-1.319303e+00 6.109740e-02 -2.917644e+00 251 226 208
-1.410050e+00 9.187649e-02 -2.894326e+00 249 217 196
-1.365168e+00 9.514427e-02 -2.898136e+00 226 195 174
-1.366388e+00 9.906716e-02 -2.898312e+00 165 133 112
-1.261286e+00 7.855371e-02 -2.923780e+00 231 219 215
-1.285291e+00 8.220631e-02 -2.918942e+00 221 204 190
-1.344436e+00 1.015714e-01 -2.903998e+00 200 168 147
-1.369813e+00 1.265145e-01 -2.894743e+00 222 190 167
-1.221651e+00 1.005176e-01 -2.921393e+00 255 248 252
-1.311847e+00 1.185283e-01 -2.905516e+00 181 149 129
-1.361994e+00 1.287666e-01 -2.897050e+00 197 163 136
-1.325800e+00 1.265621e-01 -2.903578e+00 245 214 193
-1.301091e+00 1.265096e-01 -2.907914e+00 239 205 180
-1.301091e+00 1.265096e-01 -2.907914e+00 239 205 180
-1.361749e+00 1.379649e-01 -2.899773e+00 185 148 120
-1.308751e+00 1.307242e-01 -2.906707e+00 182 146 120
-1.308659e+00 1.308812e-01 -2.906936e+00 182 146 120
-1.271477e+00 1.260947e-01 -2.915206e+00 214 188 165
-1.511270e+00 1.491923e-01 -2.904011e+00 253 225 200
-1.461268e+00 1.477957e-01 -2.904947e+00 236 209 179
-1.487599e+00 1.531207e-01 -2.905668e+00 202 162 130
-1.553061e+00 1.642512e-01 -2.907379e+00 186 137 98
1.299249e+00 1.039194e-01 -2.663587e+00 230 203 181
-1.490423e+00 1.612283e-01 -2.910289e+00 206 164 126
-1.503982e+00 1.672613e-01 -2.910017e+00 166 126 103
-1.336882e+00 1.566484e-01 -2.908678e+00 253 211 169
-1.349586e+00 1.569583e-01 -2.908578e+00 157 113 74
-1.411144e+00 1.634773e-01 -2.911544e+00 229 192 147
-1.489892e+00 1.682665e-01 -2.916593e+00 161 120 95
-1.413065e+00 1.656455e-01 -2.914802e+00 255 231 186
-1.525470e+00 1.761971e-01 -2.909318e+00 139 91 53
-1.455567e+00 1.663687e-01 -2.921917e+00 156 112 73
-1.291970e+00 1.606994e-01 -2.914125e+00 198 152 116
-1.349530e+00 1.676163e-01 -2.916806e+00 203 157 108
-1.349533e+00 1.675724e-01 -2.916906e+00 203 157 108
-1.317216e+00 1.657680e-01 -2.917329e+00 153 110 67
-1.317422e+00 1.653680e-01 -2.917637e+00 153 110 67
-1.218573e+00 1.620394e-01 -2.913857e+00 194 150 115
-1.491301e+00 1.788603e-01 -2.920525e+00 138 97 79
-1.348480e+00 1.712424e-01 -2.920297e+00 247 201 152
-1.470898e+00 1.759478e-01 -2.934058e+00 235 194 159
1.318774e+00 1.297821e-01 -2.665361e+00 255 248 225
-1.215832e+00 1.712180e-01 -2.914601e+00 190 146 111
-1.187371e+00 1.729725e-01 -2.912685e+00 205 161 126
-1.187370e+00 1.728467e-01 -2.912969e+00 205 161 126
-1.318528e+00 1.775256e-01 -2.925714e+00 198 154 107
-1.430085e+00 1.790701e-01 -2.936361e+00 144 95 52
-1.339167e+00 1.772955e-01 -2.929740e+00 223 177 127
-1.393577e+00 1.801417e-01 -2.935459e+00 239 189 139
-1.298436e+00 1.817309e-01 -2.928355e+00 196 149 101
-1.413567e+00 1.838132e-01 -2.942413e+00 206 158 114
-1.146730e+00 1.846673e-01 -2.912718e+00 212 180 142
-1.146965e+00 1.844342e-01 -2.913024e+00 212 180 142
-1.086106e+00 1.849260e-01 -2.906187e+00 226 198 161
-1.112045e+00 1.851372e-01 -2.909793e+00 218 193 160
-1.118053e+00 1.850874e-01 -2.909710e+00 223 194 162
-1.415074e+00 1.872139e-01 -2.945682e+00 163 116 68
-1.365146e+00 1.875167e-01 -2.940029e+00 233 183 134
-1.364848e+00 1.877916e-01 -2.939589e+00 233 183 134
-1.441107e+00 1.887328e-01 -2.947471e+00 225 178 134
-1.441120e+00 1.886575e-01 -2.947679e+00 225 178 134
-1.137119e+00 1.860518e-01 -2.915332e+00 254 222 185
-1.174432e+00 1.870231e-01 -2.918205e+00 187 142 103
-1.465949e+00 1.948053e-01 -2.948614e+00 143 100 66
-1.431179e+00 1.923151e-01 -2.952987e+00 123 76 32
-1.465730e+00 1.979248e-01 -2.951248e+00 204 161 126
-1.287435e+00 1.933534e-01 -2.937398e+00 223 177 127
1.235118e+00 1.168506e-01 -2.751198e+00 201 161 126
-1.034743e+00 1.977922e-01 -2.903439e+00 230 206 172
-1.393769e+00 1.948781e-01 -2.955713e+00 200 151 108
-1.393606e+00 1.951795e-01 -2.955414e+00 200 151 108
-1.136024e+00 1.978023e-01 -2.917210e+00 228 193 155
-1.454636e+00 1.970504e-01 -2.961784e+00 115 68 26
-1.223127e+00 1.979849e-01 -2.929970e+00 201 157 118
-1.490162e+00 2.032765e-01 -2.955354e+00 214 175 144
-1.301452e+00 1.966113e-01 -2.943073e+00 252 206 155
-1.410206e+00 1.964853e-01 -2.959596e+00 108 61 27
-1.166045e+00 1.999852e-01 -2.921938e+00 210 165 124
-6.086832e-01 2.012911e-01 -2.854655e+00 231 216 193
1.250785e+00 1.315436e-01 -2.740739e+00 179 139 108
1.377619e+00 1.636940e-01 -2.671492e+00 185 160 146
1.377608e+00 1.637504e-01 -2.671506e+00 185 160 146
-1.311700e+00 2.059598e-01 -2.954049e+00 255 212 160
-1.425317e+00 2.024670e-01 -2.975949e+00 175 126 84
-1.175229e+00 2.101778e-01 -2.929591e+00 252 210 168
1.373380e+00 1.695808e-01 -2.675511e+00 167 139 119
1.228205e+00 1.341649e-01 -2.760154e+00 252 212 176
-1.195751e+00 2.165975e-01 -2.937548e+00 238 191 147
-1.430808e+00 2.084885e-01 -2.984305e+00 161 114 72
-1.446647e+00 2.148428e-01 -2.978756e+00 232 188 147
1.189981e+00 1.363787e-01 -2.774519e+00 199 155 116
-1.180035e+00 2.187018e-01 -2.937499e+00 255 211 169
-1.443969e+00 2.138104e-01 -2.982131e+00 117 72 34
-1.421136e+00 2.122379e-01 -2.983839e+00 253 205 159
-4.450592e-01 2.190029e-01 -2.841082e+00 218 199 169
-1.249809e+00 2.193075e-01 -2.952745e+00 205 156 113
-1.449814e+00 2.189319e-01 -2.979118e+00 155 111 72
1.248430e+00 1.464967e-01 -2.754044e+00 208 168 133
-1.266814e+00 2.226877e-01 -2.959644e+00 194 146 97
-1.228492e+00 2.269664e-01 -2.951671e+00 251 207 160
-1.219609e+00 2.271216e-01 -2.954538e+00 194 150 103
1.250819e+00 1.553992e-01 -2.758233e+00 254 219 185
-2.391623e-01 2.255061e-01 -2.827756e+00 231 214 184
-8.524086e-01 2.375693e-01 -2.891131e+00 255 245 211
-1.216589e+00 2.312240e-01 -2.955044e+00 255 212 164
-1.265407e+00 2.298355e-01 -2.963806e+00 255 217 170
-1.378426e+00 2.259697e-01 -2.990255e+00 212 165 121
-1.208835e+00 2.329697e-01 -2.955593e+00 255 218 170
-8.535309e-01 2.410313e-01 -2.892837e+00 219 203 169
1.245995e+00 1.605679e-01 -2.767850e+00 214 174 139
-1.399116e+00 2.321523e-01 -2.996948e+00 151 105 72
-1.273058e+00 2.413910e-01 -2.971923e+00 244 197 150
-1.141301e+00 2.478160e-01 -2.948139e+00 230 196 151
-9.957664e-01 2.511835e-01 -2.922836e+00 255 240 210
1.390620e+00 1.971117e-01 -2.708318e+00 209 173 140
-7.820903e-02 2.477429e-01 -2.818245e+00 253 232 195
-1.167688e+00 2.564196e-01 -2.959417e+00 208 165 120
-1.425254e+00 2.581096e-01 -2.992938e+00 157 108 75
1.044861e+00 1.695476e-01 -2.819915e+00 209 170 128
-1.317862e+00 2.517794e-01 -2.992482e+00 228 185 143
1.204758e+00 1.696562e-01 -2.800492e+00 225 192 151
1.192079e+00 1.687974e-01 -2.804336e+00 229 196 151
4.624960e-01 2.130608e-01 -2.825759e+00 205 186 153
1.212119e+00 1.741811e-01 -2.799387e+00 255 238 197
-1.265625e+00 2.592278e-01 -2.982698e+00 206 162 120
1.337010e+00 1.990044e-01 -2.738885e+00 252 218 180
-1.217587e+00 2.639342e-01 -2.974235e+00 250 207 162
-1.421896e+00 2.672370e-01 -2.995378e+00 225 179 148
-1.422042e+00 2.674209e-01 -2.996512e+00 225 179 148
-1.426326e+00 2.681542e-01 -2.996402e+00 134 87 57
1.203399e+00 1.762967e-01 -2.806918e+00 238 205 162
-1.394744e+00 2.682934e-01 -2.999722e+00 200 156 119
1.017755e+00 1.850335e-01 -2.827897e+00 207 166 122
-1.207420e+00 2.717261e-01 -2.976573e+00 163 120 75
-1.274157e+00 2.714449e-01 -2.987945e+00 225 181 136
-1.273866e+00 2.717740e-01 -2.987263e+00 225 181 136
-1.243521e+00 2.739488e-01 -2.982812e+00 212 167 126
-1.400686e+00 2.786429e-01 -2.999679e+00 193 148 115
-4.236321e-01 2.846873e-01 -2.851140e+00 234 215 185
8.842477e-01 1.919511e-01 -2.848401e+00 255 232 193
-1.217533e+00 2.779818e-01 -2.981064e+00 176 133 90
-1.246721e+00 2.802399e-01 -2.987179e+00 197 154 112
1.347118e+00 2.105304e-01 -2.759038e+00 254 221 184
1.140927e+00 1.884990e-01 -2.831721e+00 255 224 180
-1.273545e+00 2.834598e-01 -2.992109e+00 241 194 152
-1.283397e+00 2.822200e-01 -2.993009e+00 240 193 151
-1.129868e+00 2.851967e-01 -2.967962e+00 255 232 189
1.344361e+00 2.113731e-01 -2.761747e+00 225 189 153
-1.222787e+00 2.876100e-01 -2.985527e+00 255 220 176
2.479148e-01 2.630152e-01 -2.825428e+00 255 241 206
1.023831e+00 1.989999e-01 -2.842393e+00 193 155 110
-1.097060e+00 2.916412e-01 -2.966392e+00 211 172 129
1.360509e+00 2.146370e-01 -2.766479e+00 203 167 130
-7.371363e-01 2.966332e-01 -2.906741e+00 239 226 192
-1.367947e+00 2.940603e-01 -3.004741e+00 253 209 174
-1.105611e+00 2.938235e-01 -2.969854e+00 201 160 116
1.055613e+00 2.027536e-01 -2.841696e+00 254 215 170
1.361938e+00 2.176370e-01 -2.769756e+00 242 207 169
-1.369209e+00 2.977424e-01 -3.006463e+00 216 172 135
-1.081572e+00 2.993894e-01 -2.969716e+00 230 192 151
-1.104647e+00 3.000840e-01 -2.972839e+00 171 128 83
-1.104837e+00 2.997550e-01 -2.973363e+00 171 128 83
-1.403484e+00 3.069869e-01 -3.002096e+00 241 204 178
1.206973e+00 2.048262e-01 -2.833640e+00 222 188 142
-9.563933e-01 3.031235e-01 -2.950533e+00 255 237 204
-7.216262e-01 3.073686e-01 -2.912795e+00 255 249 217
-1.221621e+00 3.020396e-01 -2.996788e+00 210 167 124
1.227750e+00 2.083314e-01 -2.827648e+00 188 146 104
-3.276971e-01 3.083985e-01 -2.864433e+00 255 245 208
-1.375473e+00 3.136343e-01 -3.009228e+00 210 170 145
-1.259753e-01 3.025317e-01 -2.852191e+00 255 251 216
-1.072950e+00 3.099143e-01 -2.978366e+00 182 145 103
-1.300968e+00 3.142472e-01 -3.009771e+00 240 196 151
-1.336408e+00 3.156064e-01 -3.011731e+00 246 201 162
-1.296077e-01 3.110944e-01 -2.857694e+00 252 230 191
8.849762e-02 3.007643e-01 -2.848443e+00 254 231 197
-3.764138e-01 3.188617e-01 -2.882931e+00 254 229 192
-1.266639e+00 3.205080e-01 -3.011995e+00 254 214 172
1.997157e-01 2.942189e-01 -2.850834e+00 255 241 204
-4.468113e-01 3.207809e-01 -2.893447e+00 253 230 196
-1.303111e+00 3.257094e-01 -3.014576e+00 192 148 103
2.005726e-01 2.954790e-01 -2.856142e+00 241 221 184
1.102848e+00 2.289188e-01 -2.859078e+00 211 165 115
-1.361887e+00 3.316138e-01 -3.019277e+00 162 119 87
-6.676296e-01 3.269710e-01 -2.929537e+00 252 228 192
-6.678913e-01 3.261481e-01 -2.930999e+00 252 228 192
-1.253716e+00 3.277043e-01 -3.020229e+00 154 107 65
-1.213031e+00 3.255830e-01 -3.022762e+00 193 161 125
-1.264825e+00 3.307702e-01 -3.020780e+00 228 184 139
-1.336675e+00 3.362007e-01 -3.021099e+00 233 190 148
-2.770347e-01 3.273461e-01 -2.886735e+00 192 168 132
-1.312879e+00 3.364172e-01 -3.023510e+00 227 182 141
-1.430331e+00 3.605141e-01 -3.014365e+00 162 121 91
-1.316686e+00 3.455333e-01 -3.030211e+00 211 168 126
-1.378390e+00 3.560997e-01 -3.022525e+00 133 91 67
2.492223e-01 3.117163e-01 -2.869981e+00 242 220 183
-1.310206e+00 3.467742e-01 -3.034191e+00 152 110 69
-1.430664e+00 3.642278e-01 -3.016241e+00 221 180 152
7.695578e-01 2.574280e-01 -2.910280e+00 250 231 201
2.443921e-01 3.116982e-01 -2.880854e+00 239 217 178
9.609771e-01 2.515588e-01 -2.915712e+00 238 210 173
-7.439975e-02 3.387231e-01 -2.895755e+00 240 220 183
-1.416649e+00 3.753890e-01 -3.027728e+00 90 44 11
1.136292e+00 2.652108e-01 -2.874720e+00 255 229 199
1.163960e+00 2.669279e-01 -2.868226e+00 216 178 142
-1.321783e+00 3.575904e-01 -3.067827e+00 90 61 31
1.181156e+00 2.700938e-01 -2.865559e+00 203 156 113
1.151064e+00 2.684490e-01 -2.873813e+00 216 177 144
-1.369670e+00 3.784802e-01 -3.051154e+00 125 89 53
-1.395657e+00 3.866611e-01 -3.046226e+00 116 78 44
-1.417476e+00 3.953588e-01 -3.054501e+00 114 69 36
1.219864e+00 3.124933e-01 -2.878773e+00 255 225 180
1.217841e+00 3.140719e-01 -2.881736e+00 215 173 125
1.242154e+00 3.204499e-01 -2.881616e+00 255 217 174
1.234310e+00 3.210761e-01 -2.889849e+00 254 221 176
1.090933e+00 2.994447e-01 -2.966930e+00 198 165 120
1.195045e+00 3.159382e-01 -2.930668e+00 255 230 189
1.072264e+00 3.027576e-01 -2.983808e+00 242 207 162
1.112360e+00 3.084247e-01 -2.968092e+00 255 222 178
1.133707e+00 3.240295e-01 -2.970197e+00 212 177 135
1.185071e+00 3.294828e-01 -2.960207e+00 196 161 123
1.192872e+00 3.331100e-01 -2.959301e+00 190 156 121
1.174649e+00 3.338917e-01 -2.969097e+00 241 208 170
1.196637e+00 3.367336e-01 -2.962621e+00 241 208 175
1.247993e+00 3.436761e-01 -3.018649e+00 168 138 102
-1.393299e+00 -8.302102e-02 -2.931110e+00 255 235 230
-1.437947e+00 -3.279630e-02 -2.911712e+00 232 205 196
-1.421542e+00 -1.690396e-02 -2.910950e+00 242 215 209
-1.463825e+00 -9.992829e-03 -2.911502e+00 211 180 160
-1.444287e+00 -9.374071e-03 -2.911632e+00 232 199 183
-1.327665e+00 -5.133478e-02 -2.965988e+00 220 201 203
-1.415019e+00 5.323372e-03 -2.909319e+00 188 158 147
-1.516942e+00 4.169432e-02 -2.912985e+00 218 183 161
-1.392609e+00 5.612604e-02 -2.901188e+00 185 157 133
-1.373183e+00 5.398544e-02 -2.907572e+00 190 159 138
-1.387560e+00 6.098905e-02 -2.903088e+00 251 224 203
-1.380058e+00 6.148523e-02 -2.902749e+00 240 210 186
-1.393744e+00 9.201763e-02 -2.895469e+00 202 170 149
-1.336991e+00 7.972299e-02 -2.909068e+00 222 189 170
-1.215920e+00 6.785474e-02 -2.936197e+00 209 205 218
-1.559498e+00 1.084450e-01 -2.911749e+00 255 240 219
-1.278059e+00 9.716583e-02 -2.916598e+00 254 242 230
-1.273133e+00 9.853645e-02 -2.913899e+00 255 243 231
-1.381999e+00 1.188223e-01 -2.894724e+00 222 192 168
1.403282e+00 7.694386e-02 -2.637001e+00 228 187 158
-1.312532e+00 1.307853e-01 -2.906555e+00 248 212 186
-1.270424e+00 1.302797e-01 -2.914665e+00 255 231 208
-1.340364e+00 1.501561e-01 -2.906896e+00 252 213 180
-1.308746e+00 1.529001e-01 -2.909583e+00 253 214 176
-1.250167e+00 1.503946e-01 -2.913998e+00 255 228 196
-1.366960e+00 1.628045e-01 -2.916137e+00 214 166 121
-1.414301e+00 1.708756e-01 -2.923486e+00 207 159 110
-1.470697e+00 1.727073e-01 -2.931218e+00 161 117 82
-1.443923e+00 1.745764e-01 -2.928697e+00 225 179 135
-1.079797e+00 1.633064e-01 -2.903672e+00 242 226 210
-1.427802e+00 1.749156e-01 -2.929946e+00 205 158 109
1.264685e+00 1.167843e-01 -2.706423e+00 223 186 150
-1.438090e+00 1.820967e-01 -2.937212e+00 216 169 126
1.322116e+00 1.368733e-01 -2.668276e+00 218 192 167
-1.338843e+00 1.793065e-01 -2.933252e+00 182 135 85
-1.430327e+00 1.849165e-01 -2.944201e+00 161 114 68
-1.430303e+00 1.848390e-01 -2.944261e+00 161 114 68
-1.179580e+00 1.850272e-01 -2.916866e+00 241 197 158
-1.307109e+00 1.840609e-01 -2.934258e+00 176 129 83
-1.452077e+00 1.917591e-01 -2.947689e+00 182 139 96
-1.414167e+00 1.900035e-01 -2.948271e+00 221 173 125
-1.414182e+00 1.901637e-01 -2.948106e+00 221 173 125
-1.230457e+00 1.902855e-01 -2.925330e+00 199 155 116
-1.230515e+00 1.903537e-01 -2.925230e+00 199 155 116
-1.408515e+00 1.946635e-01 -2.954980e+00 180 130 89
-1.421216e+00 1.951135e-01 -2.955989e+00 183 135 95
-1.332323e+00 1.970861e-01 -2.950968e+00 250 203 154
-1.395651e+00 1.982454e-01 -2.960215e+00 128 81 37
-1.279713e+00 2.008097e-01 -2.946554e+00 230 181 137
-1.062126e+00 2.086740e-01 -2.911741e+00 246 220 187
-1.460002e+00 2.109086e-01 -2.967001e+00 201 156 115
-1.414657e+00 2.048331e-01 -2.976584e+00 151 100 54
-1.392810e+00 2.074130e-01 -2.973541e+00 228 176 127
7.349628e-01 9.827289e-02 -2.893015e+00 67 59 43
-1.251070e+00 2.139031e-01 -2.947957e+00 193 146 100
-4.677437e-01 2.150421e-01 -2.844262e+00 255 236 209
-1.252070e+00 2.157087e-01 -2.951361e+00 232 185 139
-1.156634e+00 2.210218e-01 -2.935168e+00 228 190 146
-1.163141e+00 2.212885e-01 -2.936912e+00 239 197 155
-1.191677e+00 2.213703e-01 -2.942195e+00 217 173 128
-1.317013e+00 2.173398e-01 -2.966513e+00 218 170 121
-1.159652e+00 2.228622e-01 -2.936950e+00 255 237 193
1.255459e+00 1.540941e-01 -2.754286e+00 238 200 164
1.236957e+00 1.507623e-01 -2.766573e+00 181 139 101
-1.168757e+00 2.310379e-01 -2.943177e+00 255 225 181
1.248085e+00 1.549288e-01 -2.760288e+00 179 139 104
-1.328498e+00 2.297743e-01 -2.979629e+00 251 208 157
-1.267166e+00 2.322555e-01 -2.967204e+00 204 154 105
